# This PCD file was generated using the MATLAB® pcwrite function
# from Computer Vision System Toolbox®.
# .PCD v.7 - Point Cloud Data file format
VERSION .7
FIELDS x y z
SIZE 8 8 8
TYPE F F F
COUNT 1 1 1
WIDTH 864
HEIGHT 1
VIEWPOINT 0 0 0 1 0 0 0
POINTS 864
DATA ascii
-0.054918379892084 0.709507769549942 1.489000000000000
-0.054955262618674 0.714067736224465 1.490000000000000
-0.054955262618674 0.718151203389552 1.490000000000000
-0.054918379892084 0.721749949299233 1.489000000000000
-0.054881497165494 0.725343214044935 1.488000000000000
-0.054918379892084 0.729911402465428 1.489000000000000
-0.054955262618674 0.734485072049900 1.490000000000000
-0.054881497165494 0.737577172048256 1.488000000000000
-0.054844614438904 0.741156733884008 1.487000000000000
-0.054844614438904 0.745231979303125 1.487000000000000
-0.054844614438904 0.749307224722242 1.487000000000000
-0.054881497165494 0.753889116052685 1.488000000000000
-0.054955262618674 0.758985875040423 1.490000000000000
-0.054918379892084 0.762557215130205 1.489000000000000
-0.054844614438904 0.765608206398711 1.487000000000000
-0.054770848985725 0.768648235339257 1.485000000000000
-0.054807731712315 0.773238348415670 1.486000000000000
-0.054844614438904 0.777833942656062 1.487000000000000
-0.054881497165494 0.782435018060435 1.488000000000000
-0.054807731712315 0.785455862927051 1.486000000000000
-0.054807731712315 0.789528367764178 1.486000000000000
-0.054770848985725 0.793066820870080 1.485000000000000
-0.054770848985725 0.797136585125217 1.485000000000000
-0.054807731712315 0.801745882275560 1.486000000000000
-0.054807731712315 0.805818387112687 1.486000000000000
-0.054770848985725 0.809345877890629 1.485000000000000
-0.054660200805956 0.811772378222239 1.482000000000000
-0.054660200805956 0.815833920731406 1.482000000000000
-0.054660200805956 0.819895463240574 1.482000000000000
-0.054697083532546 0.824512982136887 1.483000000000000
-0.054733966259135 0.829135982197179 1.484000000000000
-0.054697083532546 0.832641548319201 1.483000000000000
-0.054660200805956 0.836141633277243 1.482000000000000
-0.054660200805956 0.840203175786410 1.482000000000000
-0.054807731712315 0.846543435483959 1.486000000000000
-0.054955262618674 0.852905619837429 1.490000000000000
-0.054844614438904 0.855263605619289 1.487000000000000
-0.054770848985725 0.858183048952275 1.485000000000000
-0.054770848985725 0.862252813207413 1.485000000000000
-0.054844614438904 0.867489341876641 1.487000000000000
-0.054844614438904 0.871564587295758 1.487000000000000
-0.054770848985725 0.874462105972824 1.485000000000000
-0.054807731712315 0.879123474180977 1.486000000000000
-0.054918379892084 0.884979012623121 1.489000000000000
-0.055065910798443 0.891448079674200 1.493000000000000
-0.055102793525032 0.896139594284242 1.494000000000000
-0.055065910798443 0.899631457496314 1.493000000000000
-0.055102793525032 0.904328453270336 1.494000000000000
-0.055139676251622 0.909030930208339 1.495000000000000
-0.055176558978212 0.913738888310322 1.496000000000000
-0.055176558978212 0.917838798967349 1.496000000000000
-0.055139676251622 0.921322440433450 1.495000000000000
-0.055102793525032 0.924800600735572 1.494000000000000
-0.055065910798443 0.928273279873714 1.493000000000000
-0.055065910798443 0.932364968784771 1.493000000000000
-0.055029028071853 0.935829426176943 1.492000000000000
-0.055029028071853 0.939918374506010 1.492000000000000
-0.055065910798443 0.944640035517943 1.493000000000000
-0.055029028071853 0.948096271164144 1.492000000000000
-0.055029028071853 0.952185219493211 1.492000000000000
-0.054992145345263 0.955633233393444 1.491000000000000
-0.054955262618674 0.959075766129695 1.490000000000000
-0.054955262618674 0.963159233294782 1.490000000000000
-0.054955262618674 0.967242700459869 1.490000000000000
-0.054955262618674 0.971326167624957 1.490000000000000
-0.054918379892084 0.974754997451259 1.489000000000000
-0.054881497165494 0.978178346113581 1.488000000000000
-0.054844614438904 0.981596213611923 1.487000000000000
-0.054844614438904 0.985671459031040 1.487000000000000
-0.054955262618674 0.991743503450393 1.490000000000000
-0.054881497165494 0.994490290118009 1.488000000000000
-0.054881497165494 0.998568276119117 1.488000000000000
-0.054807731712315 1.001298619294794 1.486000000000000
-0.054881497165494 1.006724248121331 1.488000000000000
-0.054844614438904 1.010122931545743 1.487000000000000
-0.054918379892084 1.015562263282231 1.489000000000000
-0.054955262618674 1.020327773606003 1.490000000000000
-0.054955262618674 1.024411240771090 1.490000000000000
-0.055029028071853 1.029875237745488 1.492000000000000
-0.054992145345263 1.033271180587910 1.491000000000000
-0.055102793525032 1.039444626540892 1.494000000000000
-0.054955262618674 1.040745109431439 1.490000000000000
-0.054770848985725 1.041322440433451 1.485000000000000
-0.054733966259135 1.044688236873983 1.484000000000000
-0.054844614438904 1.050875385736915 1.487000000000000
-0.054955262618674 1.057078978091788 1.490000000000000
-0.054955262618674 1.061162445256875 1.490000000000000
-0.054992145345263 1.065960842564527 1.491000000000000
-0.055102793525032 1.072200062485269 1.494000000000000
-0.055213441704802 1.078455725897952 1.497000000000000
-0.055324089884571 1.084727832802574 1.500000000000000
-0.055324089884571 1.088838705787561 1.500000000000000
-0.055324089884571 1.092949578772548 1.500000000000000
-0.055434738064340 1.099254572661050 1.503000000000000
-0.055545386244109 1.105576010041492 1.506000000000000
-0.055397855337750 1.106755907324480 1.502000000000000
-0.055434738064340 1.111611856853922 1.503000000000000
-0.055582268970699 1.118700295434739 1.507000000000000
-0.055766682603647 1.126555735215930 1.512000000000000
-0.056061744416365 1.136682032196357 1.520000000000000
-0.056135509869544 1.142348832238014 1.522000000000000
-0.056172392596134 1.147273296317206 1.523000000000000
-0.056024861689775 1.148423047198303 1.519000000000000
-0.056393688955672 1.160173785785149 1.529000000000000
-0.056688750768390 1.170456295939006 1.537000000000000
-0.060822348200260 -0.410646316931864 1.781000000000000
-0.061334608291783 -0.409182791337568 1.796000000000000
-0.061232156273479 -0.403585437643538 1.793000000000000
-0.060856498873028 -0.396225736257352 1.782000000000000
-0.060480841472577 -0.388926327674945 1.771000000000000
-0.060412540127041 -0.383639021502606 1.769000000000000
-0.060275937435967 -0.377934423354144 1.765000000000000
-0.060207636090431 -0.372674523001705 1.763000000000000
-0.059866129362748 -0.365756417072730 1.753000000000000
-0.059627074653371 -0.359510839001770 1.746000000000000
-0.059285567925688 -0.352694134606425 1.736000000000000
-0.059114814561847 -0.346934363061340 1.731000000000000
-0.058841609179701 -0.340608946355848 1.723000000000000
-0.058773307834164 -0.335497037430869 1.721000000000000
-0.058670855815860 -0.330203888337727 1.718000000000000
-0.058500102452018 -0.324548258908262 1.713000000000000
-0.058226897069872 -0.318359871302270 1.705000000000000
-0.058021993033263 -0.312583294508422 1.699000000000000
-0.057919541014958 -0.307383325202940 1.696000000000000
-0.057987842360495 -0.303092297320259 1.698000000000000
-0.058090294378799 -0.298966066113800 1.701000000000000
-0.058124445051568 -0.294477354571017 1.702000000000000
-0.057953691687726 -0.288961494823041 1.697000000000000
-0.057714636978348 -0.283137966378540 1.690000000000000
-0.057543883614507 -0.277682399434344 1.685000000000000
-0.057509732941739 -0.272902462686976 1.684000000000000
-0.057578034287275 -0.268605953640315 1.686000000000000
-0.057578034287275 -0.263985332405190 1.686000000000000
-0.057543883614507 -0.259210876821802 1.685000000000000
-0.057441431596202 -0.254139714869850 1.682000000000000
-0.057270678232361 -0.248788290041273 1.677000000000000
-0.057065774195752 -0.243318658430304 1.671000000000000
-0.056963322177447 -0.238310529864122 1.668000000000000
-0.056929171504679 -0.233599107666504 1.667000000000000
-0.056860870159142 -0.228755775776544 1.665000000000000
-0.056724267468069 -0.223654105665879 1.661000000000000
-0.056655966122533 -0.218838179595819 1.659000000000000
-0.056519363431460 -0.213774877633014 1.655000000000000
-0.056348610067618 -0.208607071797767 1.650000000000000
-0.056212007376545 -0.203590359728792 1.646000000000000
-0.056143706031009 -0.198837467044502 1.644000000000000
-0.056109555358241 -0.194213743470563 1.643000000000000
-0.055972952667168 -0.189249102459398 1.639000000000000
-0.055836349976095 -0.184306386104153 1.635000000000000
-0.055768048630558 -0.179605564477673 1.633000000000000
-0.055733897957790 -0.175022949633584 1.632000000000000
-0.055733897957790 -0.170550319825918 1.632000000000000
-0.055699747285022 -0.165975926727800 1.631000000000000
-0.055631445939485 -0.161307992085199 1.629000000000000
-0.055665596612253 -0.156939866149976 1.630000000000000
-0.055631445939485 -0.152379175961807 1.629000000000000
-0.055597295266717 -0.147823966937619 1.628000000000000
-0.055494843248412 -0.143098118316406 1.625000000000000
-0.055494843248412 -0.138644672582670 1.625000000000000
-0.055528993921180 -0.134273806065456 1.626000000000000
-0.055563144593949 -0.129897458384263 1.627000000000000
-0.055494843248412 -0.125284335381462 1.625000000000000
-0.055460692575644 -0.120756532177173 1.624000000000000
-0.055494843248412 -0.116377443913990 1.625000000000000
-0.055460692575644 -0.111855121873681 1.624000000000000
-0.055460692575644 -0.107404416721935 1.624000000000000
-0.055358240557339 -0.102763526142412 1.621000000000000
-0.055392391230107 -0.098381697297238 1.622000000000000
-0.055426541902875 -0.093994387288084 1.623000000000000
-0.055426541902875 -0.089546422718328 1.623000000000000
-0.055324089884571 -0.084941159704675 1.620000000000000
-0.055187487193498 -0.080302647950319 1.616000000000000
-0.055187487193498 -0.075873867454493 1.616000000000000
-0.055187487193498 -0.071445086958667 1.616000000000000
-0.055153336520729 -0.066974835976168 1.615000000000000
-0.055050884502425 -0.062432606348284 1.612000000000000
-0.054948432484120 -0.057906820212340 1.609000000000000
-0.054880131138583 -0.053430726309039 1.607000000000000
-0.054845980465815 -0.048996102892410 1.606000000000000
-0.054743528447510 -0.044511425486316 1.603000000000000
-0.054675227101974 -0.040068218566895 1.601000000000000
-0.054641076429206 -0.035658260388176 1.600000000000000
-0.054641076429206 -0.031273329204190 1.600000000000000
-0.054538624410901 -0.026837982273916 1.597000000000000
-0.054402021719828 -0.022405014168809 1.593000000000000
-0.054231268355987 -0.017982646634839 1.588000000000000
-0.054128816337682 -0.013604851926355 1.585000000000000
-0.054060514992145 -0.009249343630613 1.583000000000000
-0.054060514992145 -0.004911002340457 1.583000000000000
-0.054060514992145 -0.000572661050301 1.583000000000000
-0.053992213646609 0.003760922589521 1.581000000000000
-0.053923912301072 0.008083543901383 1.579000000000000
-0.053855610955536 0.012395202885285 1.577000000000000
-0.053753158937231 0.016685298970089 1.574000000000000
-0.053719008264463 0.020985633869208 1.573000000000000
-0.053650706918926 0.025264405869230 1.571000000000000
-0.053616556246158 0.029551037858400 1.570000000000000
-0.053479953555085 0.033767499986297 1.566000000000000
-0.053514104227853 0.038083554863711 1.567000000000000
-0.053445802882317 0.042323958715873 1.565000000000000
-0.053411652209549 0.046583184885142 1.564000000000000
-0.053309200191244 0.050771879436317 1.561000000000000
-0.053309200191244 0.055049927922694 1.561000000000000
-0.053240898845707 0.059251963626996 1.559000000000000
-0.053206748172939 0.063483783976365 1.558000000000000
-0.053206748172939 0.067753610716772 1.558000000000000
-0.053138446827403 0.071930981183164 1.556000000000000
-0.053070145481866 0.076097389321596 1.554000000000000
-0.053001844136329 0.080252835132069 1.552000000000000
-0.053001844136329 0.084506218380535 1.552000000000000
-0.052967693463561 0.088702411164035 1.551000000000000
-0.053070145481866 0.093132846971383 1.554000000000000
-0.052967693463561 0.097203696496988 1.551000000000000
-0.052899392118025 0.101323514741590 1.549000000000000
-0.052831090772488 0.105432370658233 1.547000000000000
-0.052865241445256 0.109742944371667 1.548000000000000
-0.052796940099720 0.113838097378359 1.546000000000000
-0.052694488081415 0.117845913518195 1.543000000000000
-0.052626186735879 0.121916401286977 1.541000000000000
-0.052660337408647 0.126221493836431 1.542000000000000
-0.052660337408647 0.130447471264998 1.542000000000000
-0.052626186735879 0.134586111826707 1.541000000000000
-0.052557885390342 0.138629193775590 1.539000000000000
-0.052523734717574 0.142754131427350 1.538000000000000
-0.052523734717574 0.146969146527957 1.538000000000000
-0.052592036063110 0.151380760018197 1.540000000000000
-0.052557885390342 0.155500216505977 1.539000000000000
-0.052489584044806 0.159510411470980 1.537000000000000
-0.052421282699269 0.163509644108023 1.535000000000000
-0.052421282699269 0.167716437462660 1.535000000000000
-0.052489584044806 0.172147235026830 1.537000000000000
-0.052421282699269 0.176130024171933 1.535000000000000
-0.052421282699269 0.180336817526570 1.535000000000000
-0.052387132026501 0.184423387030470 1.534000000000000
-0.052421282699269 0.188750404235843 1.535000000000000
-0.052352981353733 0.192705787561046 1.533000000000000
-0.052352981353733 0.196907099751703 1.533000000000000
-0.052387132026501 0.201239598121057 1.534000000000000
-0.052387132026501 0.205443650893704 1.534000000000000
-0.052387132026501 0.209647703666351 1.534000000000000
-0.052318830680964 0.213572940589664 1.532000000000000
-0.052387132026501 0.218055809211644 1.534000000000000
-0.052352981353733 0.222114972895644 1.533000000000000
-0.052318830680964 0.226168655415664 1.532000000000000
-0.052352981353733 0.230517597276958 1.533000000000000
-0.052284680008196 0.234412687798381 1.531000000000000
-0.052284680008196 0.238608518825058 1.531000000000000
-0.052250529335428 0.242645757853138 1.530000000000000
-0.052318830680964 0.247161513458998 1.532000000000000
-0.052318830680964 0.251360085067665 1.532000000000000
-0.052318830680964 0.255558656676332 1.532000000000000
-0.052182227989891 0.259079010978771 1.528000000000000
-0.052148077317123 0.263094325350932 1.527000000000000
-0.052148077317123 0.267279194049648 1.527000000000000
-0.052182227989891 0.271641838820892 1.528000000000000
-0.052148077317123 0.275648931447082 1.527000000000000
-0.052148077317123 0.279833800145799 1.527000000000000
-0.052148077317123 0.284018668844516 1.527000000000000
-0.052148077317123 0.288203537543233 1.527000000000000
-0.052045625298818 0.291813969294519 1.524000000000000
-0.052079775971587 0.296184835811733 1.525000000000000
-0.052045625298818 0.300167263200013 1.524000000000000
-0.052113926644355 0.304743311609653 1.526000000000000
-0.052045625298818 0.308520557105507 1.524000000000000
-0.051977323953282 0.312286840273400 1.522000000000000
-0.051977323953282 0.316458006062167 1.522000000000000
-0.052011474626050 0.320839834907341 1.523000000000000
-0.052045625298818 0.325227144916494 1.524000000000000
-0.052011474626050 0.329187647648855 1.523000000000000
-0.051943173280514 0.332923784414858 1.521000000000000
-0.051943173280514 0.337092209621635 1.521000000000000
-0.051874871934977 0.340811902895699 1.519000000000000
-0.051874871934977 0.344974846938496 1.519000000000000
-0.051806570589441 0.348678096720620 1.517000000000000
-0.051806570589441 0.352835559599437 1.517000000000000
-0.051738269243904 0.356522365889620 1.515000000000000
-0.051738269243904 0.360674347604457 1.515000000000000
-0.051738269243904 0.364826329319294 1.515000000000000
-0.051738269243904 0.368978311034131 1.515000000000000
-0.051704118571136 0.372884002126692 1.514000000000000
-0.051635817225599 0.376535180851006 1.512000000000000
-0.051567515880063 0.380175397247359 1.510000000000000
-0.051499214534526 0.383804651315753 1.508000000000000
-0.051499214534526 0.387937448956660 1.508000000000000
-0.051567515880063 0.392590233662020 1.510000000000000
-0.051533365207295 0.396465778352691 1.509000000000000
-0.051362611843453 0.399273943094555 1.504000000000000
-0.051260159825149 0.402591132572913 1.501000000000000
-0.051396762516222 0.407788569580636 1.505000000000000
-0.051533365207295 0.413007931244279 1.509000000000000
-0.051499214534526 0.416867032443009 1.508000000000000
-0.051362611843453 0.419883119659291 1.504000000000000
-0.051157707806844 0.422313445843359 1.498000000000000
-0.051294310497917 0.427557472744912 1.502000000000000
-0.051191858479612 0.430811628837500 1.499000000000000
-0.051089406461307 0.434049341438148 1.496000000000000
-0.050850351751930 0.436099088482430 1.489000000000000
-0.051055255788539 0.441953541654106 1.495000000000000
-0.050986954443003 0.445453988368970 1.493000000000000
-0.050952803770234 0.449244575017951 1.492000000000000
-0.050884502424698 0.452725837658885 1.490000000000000
-0.051191858479612 0.459568555658480 1.499000000000000
-0.051294310497917 0.464604660085616 1.502000000000000
-0.051430913188990 0.469969272594728 1.506000000000000
-0.051294310497917 0.472837368383550 1.502000000000000
-0.051328461170685 0.477271268286533 1.503000000000000
-0.051260159825149 0.480749790345478 1.501000000000000
-0.051260159825149 0.484863403912455 1.501000000000000
-0.051635817225599 0.492560459979281 1.512000000000000
-0.051601666552831 0.496375711866172 1.511000000000000
-0.051465063861758 0.499191736597184 1.507000000000000
-0.051328461170685 0.501985836672276 1.503000000000000
-0.051328461170685 0.506104931403233 1.503000000000000
-0.051328461170685 0.510224026134190 1.503000000000000
-0.051362611843453 0.514685331857073 1.504000000000000
-0.051328461170685 0.518462215596104 1.503000000000000
-0.051328461170685 0.522581310327061 1.503000000000000
-0.051328461170685 0.526700405058018 1.503000000000000
-0.051328461170685 0.530819499788975 1.503000000000000
-0.051294310497917 0.534582680618056 1.502000000000000
-0.051260159825149 0.538340380283157 1.501000000000000
-0.051260159825149 0.542453993850134 1.501000000000000
-0.051294310497917 0.546931743064957 1.502000000000000
-0.051294310497917 0.551048097213924 1.502000000000000
-0.051226009152380 0.554425217739239 1.500000000000000
-0.051157707806844 0.557791375936594 1.498000000000000
-0.051157707806844 0.561896767757601 1.498000000000000
-0.051191858479612 0.566379998136404 1.499000000000000
-0.051191858479612 0.570488130539401 1.499000000000000
-0.051123557134076 0.573829623498846 1.497000000000000
-0.051123557134076 0.577932274737863 1.497000000000000
-0.051123557134076 0.582034925976880 1.497000000000000
-0.051089406461307 0.585746035748151 1.496000000000000
-0.051055255788539 0.589451664355443 1.495000000000000
-0.050986954443003 0.592754789167028 1.493000000000000
-0.050986954443003 0.596846478078085 1.493000000000000
-0.051089406461307 0.602145678376260 1.496000000000000
-0.051123557134076 0.606650833410983 1.497000000000000
-0.051123557134076 0.610753484650000 1.497000000000000
-0.051021105115771 0.613623959263989 1.494000000000000
-0.050952803770234 0.616891456509704 1.492000000000000
-0.050918653097466 0.620564198133116 1.491000000000000
-0.050952803770234 0.625069353167839 1.492000000000000
-0.050952803770234 0.629158301496906 1.492000000000000
-0.050952803770234 0.633247249825973 1.492000000000000
-0.050952803770234 0.637336198155040 1.492000000000000
-0.050918653097466 0.640995236868501 1.491000000000000
-0.050918653097466 0.645081444615579 1.491000000000000
-0.050850351751930 0.648296870803484 1.489000000000000
-0.050816201079161 0.651939466025005 1.488000000000000
-0.050782050406393 0.655576580082546 1.487000000000000
-0.050816201079161 0.660095438027219 1.488000000000000
-0.050850351751930 0.664619777135873 1.489000000000000
-0.050850351751930 0.668700503718970 1.489000000000000
-0.050884502424698 0.673233064573593 1.490000000000000
-0.050884502424698 0.677316531738680 1.490000000000000
-0.050884502424698 0.681399998903767 1.490000000000000
-0.050850351751930 0.685023410051358 1.489000000000000
-0.050782050406393 0.688178543435484 1.487000000000000
-0.050747899733625 0.691788251673125 1.486000000000000
-0.050816201079161 0.696797312037184 1.488000000000000
-0.050850351751930 0.701346316383747 1.489000000000000
-0.050884502424698 0.705900801894290 1.490000000000000
-0.050850351751930 0.709507769549942 1.489000000000000
-0.050884502424698 0.714067736224465 1.490000000000000
-0.050884502424698 0.718151203389552 1.490000000000000
-0.050884502424698 0.722234670554639 1.490000000000000
-0.050850351751930 0.725830675882330 1.489000000000000
-0.050884502424698 0.730401604884813 1.490000000000000
-0.050884502424698 0.734485072049900 1.490000000000000
-0.050884502424698 0.738568539214988 1.490000000000000
-0.050850351751930 0.742153582214719 1.489000000000000
-0.050782050406393 0.745231979303125 1.487000000000000
-0.050747899733625 0.748803319392906 1.486000000000000
-0.050747899733625 0.752875824230033 1.486000000000000
-0.050816201079161 0.757967102053792 1.488000000000000
-0.050816201079161 0.762045088054899 1.488000000000000
-0.050816201079161 0.766123074056006 1.488000000000000
-0.050782050406393 0.769683451817828 1.487000000000000
-0.050850351751930 0.774799394879497 1.489000000000000
-0.050816201079161 0.778357032059328 1.488000000000000
-0.050850351751930 0.782960848045691 1.489000000000000
-0.050816201079161 0.786513004061542 1.488000000000000
-0.050816201079161 0.790590990062650 1.488000000000000
-0.050747899733625 0.793600872601306 1.486000000000000
-0.050782050406393 0.798210169751648 1.487000000000000
-0.050816201079161 0.802824948065971 1.488000000000000
-0.050816201079161 0.806902934067078 1.488000000000000
-0.050747899733625 0.809890891949814 1.486000000000000
-0.050679598388088 0.812867887504590 1.484000000000000
-0.050645447715320 0.816384415954572 1.483000000000000
-0.050713749060857 0.821555170656040 1.485000000000000
-0.050747899733625 0.826180911298323 1.486000000000000
-0.050816201079161 0.831370850073721 1.488000000000000
-0.050747899733625 0.834325920972578 1.486000000000000
-0.050713749060857 0.837834227676589 1.485000000000000
-0.050645447715320 0.840770114501516 1.483000000000000
-0.050747899733625 0.846543435483959 1.486000000000000
-0.050884502424698 0.852905619837429 1.490000000000000
-0.050884502424698 0.856989087002516 1.490000000000000
-0.050850351751930 0.860494653124538 1.489000000000000
-0.050816201079161 0.863994738082579 1.488000000000000
-0.050884502424698 0.869239488497777 1.490000000000000
-0.050884502424698 0.873322955662865 1.490000000000000
-0.050816201079161 0.876228696085901 1.488000000000000
-0.050884502424698 0.881489889993039 1.490000000000000
-0.050986954443003 0.887356390763142 1.493000000000000
-0.051089406461307 0.893239335025186 1.496000000000000
-0.051055255788539 0.896739419983228 1.495000000000000
-0.051021105115771 0.900234023777289 1.494000000000000
-0.050952803770234 0.903117839544406 1.492000000000000
-0.050986954443003 0.907814835318428 1.493000000000000
-0.051021105115771 0.912517312256431 1.494000000000000
-0.051089406461307 0.917838798967349 1.496000000000000
-0.051055255788539 0.921322440433450 1.495000000000000
-0.051089406461307 0.926038620281403 1.496000000000000
-0.051021105115771 0.928895030228619 1.494000000000000
-0.051021105115771 0.932989459721666 1.494000000000000
-0.051021105115771 0.937083889214714 1.494000000000000
-0.051021105115771 0.941178318707761 1.494000000000000
-0.051021105115771 0.945272748200808 1.494000000000000
-0.050918653097466 0.947460817899289 1.491000000000000
-0.050918653097466 0.951547025646366 1.491000000000000
-0.050884502424698 0.954992298964608 1.490000000000000
-0.050884502424698 0.959075766129695 1.490000000000000
-0.050850351751930 0.962512817701967 1.489000000000000
-0.050816201079161 0.965944388110259 1.488000000000000
-0.050850351751930 0.970674270868161 1.489000000000000
-0.050884502424698 0.975409634790044 1.490000000000000
-0.050884502424698 0.979493101955131 1.490000000000000
-0.050850351751930 0.982916450617453 1.489000000000000
-0.050782050406393 0.985671459031040 1.487000000000000
-0.050816201079161 0.990412304116902 1.488000000000000
-0.050816201079161 0.994490290118009 1.488000000000000
-0.050850351751930 0.999239356949842 1.489000000000000
-0.050816201079161 1.002646262120224 1.488000000000000
-0.050816201079161 1.006724248121331 1.488000000000000
-0.050782050406393 1.010122931545743 1.487000000000000
-0.050713749060857 1.012834090647490 1.485000000000000
-0.050782050406393 1.018273422383977 1.487000000000000
-0.050816201079161 1.023036192125760 1.488000000000000
-0.050952803770234 1.029875237745488 1.492000000000000
-0.050952803770234 1.033964186074555 1.492000000000000
-0.051021105115771 1.039444626540892 1.494000000000000
-0.050816201079161 1.039348136130189 1.488000000000000
-0.050713749060857 1.041322440433451 1.485000000000000
-0.050713749060857 1.045392204688588 1.485000000000000
-0.050884502424698 1.052995510926700 1.490000000000000
-0.050918653097466 1.057788427070373 1.491000000000000
-0.050952803770234 1.062586824378025 1.492000000000000
-0.050986954443003 1.067390702849657 1.493000000000000
-0.051089406461307 1.073635403934379 1.496000000000000
-0.051191858479612 1.079896548511042 1.499000000000000
-0.051260159825149 1.085450984691109 1.501000000000000
-0.051226009152380 1.088838705787561 1.500000000000000
-0.051226009152380 1.092949578772548 1.500000000000000
-0.051294310497917 1.098523199026545 1.502000000000000
-0.051396762516222 1.104841895824997 1.505000000000000
-0.051294310497917 1.106755907324480 1.502000000000000
-0.051362611843453 1.112351452234396 1.504000000000000
-0.051396762516222 1.117215623509809 1.505000000000000
-0.051669967898368 1.127300811760386 1.513000000000000
-0.051874871934977 1.135934215069912 1.519000000000000
-0.052045625298818 1.143849947654884 1.524000000000000
-0.052045625298818 1.148026594607631 1.524000000000000
-0.051977323953282 1.150691163815548 1.522000000000000
-0.052113926644355 1.157897447421934 1.526000000000000
-0.052421282699269 1.168933255866216 1.535000000000000
-0.055925141725292 -0.405537510345697 1.780000000000000
-0.055925141725292 -0.400659274403512 1.780000000000000
-0.056019397582132 -0.396448085155364 1.783000000000000
-0.056050816201079 -0.391781235783231 1.784000000000000
-0.055987978963186 -0.386458302045022 1.782000000000000
-0.055768048630558 -0.380075694874564 1.775000000000000
-0.055673792773718 -0.374577002132173 1.772000000000000
-0.055328187965303 -0.367425584977226 1.761000000000000
-0.055139676251622 -0.361363987656419 1.755000000000000
-0.054762652824261 -0.354116288374999 1.743000000000000
-0.054636978348473 -0.348537756998076 1.739000000000000
-0.054479885253740 -0.342783466616971 1.734000000000000
-0.054448466634793 -0.337836354368214 1.733000000000000
-0.054197117683218 -0.331549305810582 1.725000000000000
-0.054008605969538 -0.325685030393054 1.719000000000000
-0.053820094255857 -0.319853641959407 1.713000000000000
-0.053631582542176 -0.314055140509639 1.707000000000000
-0.053537326685336 -0.308833246548237 1.704000000000000
-0.053568745304283 -0.304341794423464 1.705000000000000
-0.053663001161123 -0.300196379143075 1.708000000000000
-0.053631582542176 -0.295342446681977 1.707000000000000
-0.053380233590602 -0.289302050503445 1.699000000000000
-0.053285977733761 -0.284143189927813 1.696000000000000
-0.053097466020081 -0.278506382815455 1.690000000000000
-0.053097466020081 -0.273874799252369 1.690000000000000
-0.053066047401134 -0.269083900177042 1.689000000000000
-0.053066047401134 -0.264455057195946 1.689000000000000
-0.053066047401134 -0.259826214214851 1.689000000000000
-0.053034628782187 -0.255046277467483 1.688000000000000
-0.052877535687453 -0.249678409146966 1.683000000000000
-0.052689023973772 -0.244192334044058 1.677000000000000
-0.052594768116932 -0.239167761985935 1.674000000000000
-0.052594768116932 -0.234580027734690 1.674000000000000
-0.052531930879038 -0.229717511770800 1.672000000000000
-0.052374837784304 -0.224462007311873 1.667000000000000
-0.052312000546411 -0.219629637749873 1.665000000000000
-0.052217744689570 -0.214679061405480 1.662000000000000
-0.052092070213783 -0.209618500024665 1.658000000000000
-0.051872139881156 -0.204208799460653 1.651000000000000
-0.051809302643262 -0.199442203866413 1.649000000000000
-0.051809302643262 -0.194922984164917 1.649000000000000
-0.051777884024315 -0.190288298263019 1.648000000000000
-0.051652209548528 -0.185320916669864 1.644000000000000
-0.051589372310635 -0.180595429805474 1.642000000000000
-0.051557953691688 -0.175988149723475 1.641000000000000
-0.051526535072741 -0.171386350805457 1.640000000000000
-0.051463697834847 -0.166688269760966 1.638000000000000
-0.051432279215901 -0.162100173752898 1.637000000000000
-0.051369441978007 -0.157421276782338 1.635000000000000
-0.051369441978007 -0.152940425228702 1.635000000000000
-0.051306604740113 -0.148277971750081 1.633000000000000
-0.051275186121167 -0.143714540979923 1.632000000000000
-0.051275186121167 -0.139241911172257 1.632000000000000
-0.051306604740113 -0.134851860581113 1.633000000000000
-0.051369441978007 -0.130536167460522 1.635000000000000
-0.051400860596954 -0.126132413959428 1.636000000000000
-0.051400860596954 -0.121648821823803 1.636000000000000
-0.051432279215901 -0.117236846576739 1.637000000000000
-0.051338023359060 -0.112543884939406 1.634000000000000
-0.051306604740113 -0.107999638243177 1.633000000000000
-0.051180930264326 -0.103270687283151 1.629000000000000
-0.051180930264326 -0.098806279221455 1.629000000000000
-0.051275186121167 -0.094515613095597 1.632000000000000
-0.051306604740113 -0.090098156684554 1.633000000000000
-0.051275186121167 -0.085570353480265 1.632000000000000
-0.051149511645379 -0.080898954742029 1.628000000000000
-0.051055255788539 -0.076296432310365 1.625000000000000
-0.050960999931699 -0.071710353370642 1.622000000000000
-0.050898162693805 -0.067182188409531 1.620000000000000
-0.050898162693805 -0.062742445585745 1.620000000000000
-0.050803906836965 -0.058194734793881 1.617000000000000
-0.050772488218018 -0.053729964975362 1.616000000000000
-0.050678232361178 -0.049209660003398 1.613000000000000
-0.050646813742231 -0.044761333676820 1.612000000000000
-0.050583976504337 -0.040293461519488 1.610000000000000
-0.050521139266444 -0.035836551690117 1.608000000000000
-0.050426883409603 -0.031371058357953 1.605000000000000
-0.050332627552763 -0.026922008517729 1.602000000000000
-0.050175534458029 -0.022461272835899 1.597000000000000
-0.050049859982242 -0.018039267058753 1.593000000000000
-0.049955604125401 -0.013647769440318 1.590000000000000
-0.049892766887508 -0.009278558234627 1.588000000000000
-0.049892766887508 -0.004926514034520 1.588000000000000
-0.049892766887508 -0.000574469834414 1.588000000000000
-0.049798511030667 0.003770437890190 1.585000000000000
-0.049641417935933 0.008088663308540 1.580000000000000
-0.049578580698040 0.012403062874432 1.578000000000000
-0.049547162079093 0.016717100683501 1.577000000000000
-0.049547162079093 0.021038998481718 1.577000000000000
-0.049452906222253 0.025312651074582 1.574000000000000
-0.049390068984359 0.029588682492614 1.572000000000000
-0.049232975889625 0.033789062885394 1.567000000000000
-0.049232975889625 0.038083554863711 1.567000000000000
-0.049232975889625 0.042378046842027 1.567000000000000
-0.049232975889625 0.046672538820344 1.567000000000000
-0.049201557270678 0.050934505571603 1.566000000000000
-0.049201557270678 0.055226256967930 1.566000000000000
-0.049138720032785 0.059441995582182 1.564000000000000
-0.049075882794891 0.063646771868474 1.562000000000000
-0.048981626938051 0.067797098271789 1.559000000000000
-0.048918789700157 0.071977209320171 1.557000000000000
-0.048855952462264 0.076146358040593 1.555000000000000
-0.048824533843317 0.080356253734043 1.554000000000000
-0.048855952462264 0.084669568029467 1.555000000000000
-0.048824533843317 0.088873982558936 1.554000000000000
-0.048855952462264 0.093192778018340 1.555000000000000
-0.048793115224370 0.097329039754882 1.553000000000000
-0.048761696605423 0.101519751374402 1.552000000000000
-0.048698859367530 0.105636829037014 1.550000000000000
-0.048667440748583 0.109813837746584 1.549000000000000
-0.048604603510689 0.113911731335266 1.547000000000000
-0.048541766272796 0.117998662595989 1.545000000000000
-0.048541766272796 0.122232861770526 1.545000000000000
-0.048541766272796 0.126467060945062 1.545000000000000
-0.048573184891742 0.130785856404466 1.546000000000000
-0.048604603510689 0.135110133027850 1.547000000000000
-0.048510347653849 0.139079581019825 1.544000000000000
-0.048416091797008 0.143032585519861 1.541000000000000
-0.048353254559115 0.147064705140784 1.539000000000000
-0.048447510415955 0.151577358407831 1.542000000000000
-0.048447510415955 0.155803335836398 1.542000000000000
-0.048416091797008 0.159925532906168 1.541000000000000
-0.048321835940168 0.163829206930384 1.538000000000000
-0.048258998702274 0.167825698985437 1.536000000000000
-0.048290417321221 0.172147235026830 1.537000000000000
-0.048258998702274 0.176244766858690 1.536000000000000
-0.048258998702274 0.180454300795317 1.536000000000000
-0.048258998702274 0.184663834731944 1.536000000000000
-0.048290417321221 0.188996333101297 1.537000000000000
-0.048258998702274 0.193082902605197 1.536000000000000
-0.048290417321221 0.197420882138531 1.537000000000000
-0.048290417321221 0.201633156657148 1.537000000000000
-0.048290417321221 0.205845431175764 1.537000000000000
-0.048196161464381 0.209647703666351 1.534000000000000
-0.048164742845434 0.213712348514330 1.533000000000000
-0.048196161464381 0.218055809211644 1.534000000000000
-0.048227580083328 0.222404751072938 1.535000000000000
-0.048196161464381 0.226463914756938 1.534000000000000
-0.048164742845434 0.230517597276958 1.533000000000000
-0.048133324226487 0.234565798632998 1.532000000000000
-0.048133324226487 0.238764370241665 1.532000000000000
-0.048101905607540 0.242804349851734 1.531000000000000
-0.048164742845434 0.247322846039585 1.533000000000000
-0.048133324226487 0.251360085067665 1.532000000000000
-0.048164742845434 0.255725470420899 1.533000000000000
-0.048039068369647 0.259248565305328 1.529000000000000
-0.048101905607540 0.263783504985119 1.531000000000000
-0.048070486988594 0.267804300521259 1.530000000000000
-0.048101905607540 0.272175167038472 1.531000000000000
-0.048039068369647 0.276009964756116 1.529000000000000
-0.048007649750700 0.280017057382306 1.528000000000000
-0.047976231131753 0.284018668844516 1.527000000000000
-0.047944812512807 0.288014799142746 1.526000000000000
-0.047913393893860 0.292005448276996 1.525000000000000
-0.047944812512807 0.296379055376200 1.526000000000000
-0.047944812512807 0.300561183492926 1.526000000000000
-0.047976231131753 0.304943012338100 1.527000000000000
-0.047976231131753 0.309127881036817 1.527000000000000
-0.047944812512807 0.313107567843107 1.526000000000000
-0.047913393893860 0.317081773485417 1.525000000000000
-0.047881975274913 0.321050497963748 1.524000000000000
-0.047881975274913 0.325227144916494 1.524000000000000
-0.047850556655966 0.329187647648855 1.523000000000000
-0.047819138037019 0.333142669217235 1.522000000000000
-0.047756300799126 0.336870584237269 1.520000000000000
-0.047724882180179 0.340811902895699 1.519000000000000
-0.047756300799126 0.345201953486842 1.520000000000000
-0.047756300799126 0.349367638111629 1.520000000000000
-0.047756300799126 0.353533322736416 1.520000000000000
-0.047693463561232 0.357228350772570 1.518000000000000
-0.047693463561232 0.361388554233377 1.518000000000000
-0.047662044942285 0.365307948235887 1.517000000000000
-0.047662044942285 0.369465411114704 1.517000000000000
-0.047630626323339 0.373376583371245 1.516000000000000
-0.047536370466498 0.376784212055272 1.513000000000000
-0.047442114609658 0.380175397247359 1.510000000000000
-0.047379277371764 0.383804651315753 1.508000000000000
-0.047379277371764 0.387937448956660 1.508000000000000
-0.047410695990711 0.392330240129794 1.509000000000000
-0.047316440133871 0.395677576010041 1.506000000000000
-0.047253602895977 0.399273943094555 1.504000000000000
-0.047285021514924 0.403663993685699 1.505000000000000
-0.047379277371764 0.408601437161196 1.508000000000000
-0.047316440133871 0.412186841917750 1.506000000000000
-0.047127928420190 0.414655536249678 1.500000000000000
-0.047159347039137 0.419045586840822 1.501000000000000
-0.047190765658083 0.423441118595945 1.502000000000000
-0.047410695990711 0.429550084135867 1.509000000000000
-0.047379277371764 0.433398223006638 1.508000000000000
-0.047096509801243 0.434919761240497 1.499000000000000
-0.046939416706509 0.437563491062962 1.494000000000000
-0.047002253944403 0.442249162752202 1.496000000000000
-0.047033672563350 0.446647435089316 1.497000000000000
-0.047096509801243 0.451352290852485 1.499000000000000
-0.047159347039137 0.456068108943615 1.501000000000000
-0.047379277371764 0.462327806492987 1.508000000000000
-0.047410695990711 0.466769928141940 1.509000000000000
-0.047316440133871 0.469969272594728 1.506000000000000
-0.047316440133871 0.474096589071655 1.506000000000000
-0.047473533228605 0.479811634318664 1.511000000000000
-0.047316440133871 0.482351222025509 1.506000000000000
-0.047379277371764 0.487124592338429 1.508000000000000
-0.047693463561232 0.494515064979199 1.518000000000000
-0.047599207704392 0.497689744194077 1.515000000000000
-0.047410695990711 0.499854233925116 1.509000000000000
-0.047285021514924 0.502653815164188 1.505000000000000
-0.047285021514924 0.506778391059125 1.505000000000000
-0.047285021514924 0.510902966954062 1.505000000000000
-0.047285021514924 0.515027542848999 1.505000000000000
-0.047253602895977 0.518807167170020 1.504000000000000
-0.047253602895977 0.522929002482967 1.504000000000000
-0.047253602895977 0.527050837795914 1.504000000000000
-0.047222184277030 0.530819499788975 1.503000000000000
-0.047222184277030 0.534938594519932 1.503000000000000
-0.047222184277030 0.539057689250889 1.503000000000000
-0.047222184277030 0.543176783981846 1.503000000000000
-0.047222184277030 0.547295878712803 1.503000000000000
-0.047253602895977 0.551781849673597 1.504000000000000
-0.047190765658083 0.555164451362891 1.502000000000000
-0.047096509801243 0.558163733330410 1.499000000000000
-0.047065091182296 0.561896767757601 1.498000000000000
-0.047096509801243 0.566379998136404 1.499000000000000
-0.047127928420190 0.570868709679187 1.500000000000000
-0.047065091182296 0.574212943220622 1.498000000000000
-0.047033672563350 0.577932274737863 1.497000000000000
-0.047096509801243 0.582812527748393 1.499000000000000
-0.047033672563350 0.586137577215898 1.497000000000000
-0.047002253944403 0.589845946405179 1.496000000000000
-0.046939416706509 0.593151811798754 1.494000000000000
-0.046939416706509 0.597246241291801 1.494000000000000
-0.046970835325456 0.601743174580554 1.495000000000000
-0.046970835325456 0.605840344655591 1.495000000000000
-0.046939416706509 0.609529529770942 1.494000000000000
-0.046876579468616 0.612802508180637 1.492000000000000
-0.046845160849669 0.616477990386038 1.491000000000000
-0.046845160849669 0.620564198133116 1.491000000000000
-0.046876579468616 0.625069353167839 1.492000000000000
-0.046907998087562 0.629579989366542 1.493000000000000
-0.046939416706509 0.634096106729225 1.494000000000000
-0.046907998087562 0.637763367188656 1.493000000000000
-0.046876579468616 0.641425146484107 1.492000000000000
-0.046845160849669 0.645081444615579 1.491000000000000
-0.046813742230722 0.648732261583070 1.490000000000000
-0.046782323611775 0.652377597386581 1.489000000000000
-0.046750904992828 0.656017452026112 1.488000000000000
-0.046719486373882 0.659651825501664 1.487000000000000
-0.046782323611775 0.664619777135873 1.489000000000000
-0.046782323611775 0.668700503718970 1.489000000000000
-0.046845160849669 0.673684898845119 1.491000000000000
-0.046845160849669 0.677771106592196 1.491000000000000
-0.046813742230722 0.681399998903767 1.490000000000000
-0.046782323611775 0.685023410051358 1.489000000000000
-0.046750904992828 0.688641340034970 1.488000000000000
-0.046719486373882 0.692253788854601 1.487000000000000
-0.046750904992828 0.696797312037184 1.488000000000000
-0.046782323611775 0.701346316383747 1.489000000000000
-0.046813742230722 0.705900801894290 1.490000000000000
-0.046813742230722 0.709984269059377 1.490000000000000
-0.046876579468616 0.715026216407316 1.492000000000000
-0.046907998087562 0.719597145409799 1.493000000000000
-0.046907998087562 0.723688834320856 1.493000000000000
-0.046876579468616 0.727293061394518 1.492000000000000
-0.046845160849669 0.730891807304199 1.491000000000000
-0.046845160849669 0.734978015051276 1.491000000000000
-0.046845160849669 0.739064222798353 1.491000000000000
-0.046845160849669 0.743150430545431 1.491000000000000
-0.046750904992828 0.745733144050470 1.488000000000000
-0.046719486373882 0.749307224722242 1.487000000000000
-0.046719486373882 0.753382470141359 1.487000000000000
-0.046750904992828 0.757967102053792 1.488000000000000
-0.046750904992828 0.762045088054899 1.488000000000000
-0.046750904992828 0.766123074056006 1.488000000000000
-0.046750904992828 0.770201060057114 1.488000000000000
-0.046782323611775 0.774799394879497 1.489000000000000
-0.046782323611775 0.778880121462594 1.489000000000000
-0.046782323611775 0.782960848045691 1.489000000000000
-0.046782323611775 0.787041574628788 1.489000000000000
-0.046782323611775 0.791122301211885 1.489000000000000
-0.046782323611775 0.795203027794983 1.489000000000000
-0.046782323611775 0.799283754378080 1.489000000000000
-0.046813742230722 0.803904013856383 1.490000000000000
-0.046782323611775 0.807445207544274 1.489000000000000
-0.046719486373882 0.810435906009000 1.487000000000000
-0.046719486373882 0.814511151428117 1.487000000000000
-0.046688067754935 0.818035901624069 1.486000000000000
-0.046750904992828 0.823214878071507 1.488000000000000
-0.046750904992828 0.827292864072614 1.488000000000000
-0.046750904992828 0.831370850073721 1.488000000000000
-0.046750904992828 0.835448836074829 1.488000000000000
-0.046750904992828 0.839526822075936 1.488000000000000
-0.046719486373882 0.843037869361938 1.487000000000000
-0.046688067754935 0.846543435483959 1.486000000000000
-0.046813742230722 0.852905619837429 1.490000000000000
-0.046813742230722 0.856989087002516 1.490000000000000
-0.046876579468616 0.862228356253734 1.492000000000000
-0.046845160849669 0.865736662957746 1.491000000000000
-0.046907998087562 0.870989635118914 1.493000000000000
-0.046907998087562 0.875081324029971 1.493000000000000
-0.046845160849669 0.877995286198977 1.491000000000000
-0.046876579468616 0.882673097899070 1.492000000000000
-0.046970835325456 0.888545079833153 1.495000000000000
-0.047065091182296 0.894433505259177 1.498000000000000
-0.047033672563350 0.897939071381198 1.497000000000000
-0.046970835325456 0.900836590058265 1.495000000000000
-0.046907998087562 0.903723146407371 1.493000000000000
-0.046907998087562 0.907814835318428 1.493000000000000
-0.046907998087562 0.911906524229485 1.493000000000000
-0.046970835325456 0.917225270358413 1.495000000000000
-0.047002253944403 0.921938709624376 1.496000000000000
-0.047033672563350 0.926657630054318 1.497000000000000
-0.047033672563350 0.930760281293335 1.497000000000000
-0.046970835325456 0.933613950658562 1.495000000000000
-0.047033672563350 0.938965583771370 1.497000000000000
-0.046939416706509 0.941178318707761 1.494000000000000
-0.046939416706509 0.945272748200808 1.494000000000000
-0.046876579468616 0.948096271164144 1.492000000000000
-0.046939416706509 0.953461607186902 1.494000000000000
-0.046907998087562 0.956915102251114 1.493000000000000
-0.046907998087562 0.961006791162171 1.493000000000000
-0.046845160849669 0.963805648887598 1.491000000000000
-0.046782323611775 0.966593544285064 1.489000000000000
-0.046845160849669 0.971978064381752 1.491000000000000
-0.046939416706509 0.978028184145185 1.494000000000000
-0.046939416706509 0.982122613638232 1.494000000000000
-0.046907998087562 0.985556924628514 1.493000000000000
-0.046782323611775 0.986997177200550 1.489000000000000
-0.046813742230722 0.991743503450393 1.490000000000000
-0.046750904992828 0.994490290118009 1.488000000000000
-0.046782323611775 0.999239356949842 1.489000000000000
-0.046719486373882 1.001972440707509 1.487000000000000
-0.046719486373882 1.006047686126626 1.487000000000000
-0.046656649135988 1.008764326392353 1.485000000000000
-0.046625230517041 1.012152047488805 1.484000000000000
-0.046688067754935 1.017588638643302 1.486000000000000
-0.046719486373882 1.022348667803095 1.487000000000000
-0.046845160849669 1.029184972840832 1.491000000000000
-0.046845160849669 1.033271180587910 1.491000000000000
-0.046876579468616 1.038053134403622 1.492000000000000
-0.046750904992828 1.039348136130189 1.488000000000000
-0.046625230517041 1.040621213200835 1.484000000000000
-0.046719486373882 1.046800140317798 1.487000000000000
-0.046813742230722 1.052995510926700 1.490000000000000
-0.046907998087562 1.059207325027543 1.493000000000000
-0.046907998087562 1.063299013938600 1.493000000000000
-0.046939416706509 1.068105632992222 1.494000000000000
-0.047002253944403 1.073635403934379 1.496000000000000
-0.047033672563350 1.078455725897952 1.497000000000000
-0.047096509801243 1.084004680914039 1.499000000000000
-0.047065091182296 1.087386920846511 1.498000000000000
-0.047096509801243 1.092220945720033 1.499000000000000
-0.047190765658083 1.098523199026545 1.502000000000000
-0.047285021514924 1.104841895824997 1.505000000000000
-0.047316440133871 1.109703326518419 1.506000000000000
-0.047285021514924 1.113091047614871 1.505000000000000
-0.047410695990711 1.120184967359668 1.509000000000000
-0.047473533228605 1.125810658671475 1.511000000000000
-0.047630626323339 1.133690763690577 1.516000000000000
-0.047756300799126 1.140847716821144 1.520000000000000
-0.047787719418073 1.145766699736356 1.521000000000000
-0.047693463561232 1.147667008325888 1.518000000000000
-0.047567789085445 1.148792093969075 1.514000000000000
-0.051836623181477 -0.401784458707651 1.807000000000000
-0.051320265009221 -0.392879277363341 1.789000000000000
-0.051348951574346 -0.388193243917278 1.790000000000000
-0.050918653097466 -0.380075694874564 1.775000000000000
-0.050803906836965 -0.374365615562121 1.771000000000000
-0.050603100881087 -0.368051522941412 1.764000000000000
-0.050517041185711 -0.362599420092851 1.761000000000000
-0.050201488969333 -0.355538442143574 1.750000000000000
-0.050086742708831 -0.349940726692720 1.746000000000000
-0.049971996448330 -0.344364935897787 1.742000000000000
-0.049914623318079 -0.339200955914998 1.740000000000000
-0.049656444231951 -0.332702520787314 1.731000000000000
-0.049484324841199 -0.326821801877847 1.725000000000000
-0.049426951710949 -0.321720855280827 1.723000000000000
-0.049312205450447 -0.316262909511464 1.719000000000000
-0.049226145755071 -0.311008128566182 1.716000000000000
-0.049168772624821 -0.305948290699013 1.714000000000000
-0.049197459189946 -0.301426692172350 1.715000000000000
-0.049197459189946 -0.296726594059514 1.715000000000000
-0.048967966668943 -0.290664273225062 1.707000000000000
-0.048881906973567 -0.285483487993510 1.704000000000000
-0.048738474147941 -0.279989552901454 1.699000000000000
-0.048709787582815 -0.275171248006227 1.698000000000000
-0.048681101017690 -0.270358424274979 1.697000000000000
-0.048595041322314 -0.265237931847207 1.694000000000000
-0.048623727887439 -0.260749220304424 1.695000000000000
-0.048566354757189 -0.255801746298844 1.693000000000000
-0.048451608496687 -0.250568528252660 1.689000000000000
-0.048222115975685 -0.244774784453227 1.681000000000000
-0.048136056280309 -0.239739250067144 1.678000000000000
-0.048164742845434 -0.235280684926251 1.679000000000000
-0.048136056280309 -0.230541856908733 1.678000000000000
-0.048049996584933 -0.225539209506531 1.675000000000000
-0.047906563759306 -0.220289186211584 1.670000000000000
-0.047791817498805 -0.215195737846889 1.666000000000000
