# This PCD file was generated using the MATLAB® pcwrite function
# from Computer Vision System Toolbox®.
# .PCD v.7 - Point Cloud Data file format
VERSION .7
FIELDS x y z
SIZE 8 8 8
TYPE F F F
COUNT 1 1 1
WIDTH 859
HEIGHT 1
VIEWPOINT 0 0 0 1 0 0 0
POINTS 859
DATA ascii
-0.168821801789495 -0.833595786081132 2.026000000000000
-0.167155248958405 -0.814371590030859 2.006000000000000
-0.167071921316850 -0.808470755249585 2.005000000000000
-0.164905402636432 -0.792563233448255 1.979000000000000
-0.162738883956014 -0.723274655645873 1.953000000000000
-0.163155522163787 -0.719760297736827 1.958000000000000
-0.161738952257359 -0.708191632455068 1.941000000000000
-0.162155590465132 -0.704682755710003 1.946000000000000
-0.162238918106687 -0.699708961154991 1.947000000000000
-0.162155590465132 -0.694016410604956 1.946000000000000
-0.162072262823578 -0.688329341218901 1.945000000000000
-0.162238918106687 -0.683701221751451 1.947000000000000
-0.162322245748241 -0.678713724286489 1.948000000000000
-0.162072262823578 -0.672338045307301 1.945000000000000
-0.161905607540469 -0.666321744325625 1.943000000000000
-0.161822279898914 -0.660656599595490 1.942000000000000
-0.162155590465132 -0.656684202737293 1.946000000000000
-0.161822279898914 -0.650012179146363 1.942000000000000
-0.161655624615805 -0.644026024566577 1.940000000000000
-0.161405641691141 -0.637721600719129 1.937000000000000
-0.161405641691141 -0.632413093404515 1.937000000000000
-0.161322314049587 -0.626780835658260 1.936000000000000
-0.161155658766478 -0.620833049226334 1.934000000000000
-0.160989003483369 -0.614896225122367 1.932000000000000
-0.160655692917150 -0.608339305975017 1.928000000000000
-0.160405709992487 -0.602117099587268 1.925000000000000
-0.160072399426269 -0.595601289169768 1.921000000000000
-0.159572433576941 -0.588492789528784 1.915000000000000
-0.159239123010723 -0.582026309587104 1.911000000000000
-0.158489174236732 -0.574072625422735 1.902000000000000
-0.158239191312069 -0.567962782896576 1.899000000000000
-0.157822553104296 -0.561276694638874 1.894000000000000
-0.157572570179633 -0.555205220260575 1.891000000000000
-0.156989276688751 -0.547986735583168 1.884000000000000
-0.157072604330305 -0.543111601979796 1.885000000000000
-0.157072604330305 -0.537945604928663 1.885000000000000
-0.156489310839424 -0.530801115964986 1.878000000000000
-0.155656034423878 -0.522855291789764 1.868000000000000
-0.155322723857660 -0.516627242481213 1.864000000000000
-0.155156068574551 -0.510969957740226 1.862000000000000
-0.154656102725224 -0.504236917831871 1.856000000000000
-0.153739498668124 -0.496192070948187 1.845000000000000
-0.153239532818797 -0.489538507917541 1.839000000000000
-0.152822894611024 -0.483181289498638 1.834000000000000
-0.152656239327915 -0.477633628037250 1.832000000000000
-0.152406256403251 -0.471838952439940 1.829000000000000
-0.151906290553924 -0.465295012688895 1.823000000000000
-0.151489652346151 -0.459036455221631 1.818000000000000
-0.151239669421488 -0.453304813010091 1.815000000000000
-0.151156341779933 -0.448083642562335 1.814000000000000
-0.151239669421488 -0.443356500386422 1.815000000000000
-0.151239669421488 -0.438382344074588 1.815000000000000
-0.150989686496824 -0.432691810592897 1.812000000000000
-0.150573048289051 -0.426545616987223 1.807000000000000
-0.149906427156615 -0.419726895523533 1.799000000000000
-0.149656444231951 -0.414104876591593 1.796000000000000
-0.149489788948842 -0.408727131213585 1.794000000000000
-0.149573116590397 -0.404035616603542 1.795000000000000
-0.149323133665733 -0.398449225237471 1.792000000000000
-0.148906495457961 -0.392440060731297 1.787000000000000
-0.148406529608633 -0.386241434310990 1.781000000000000
-0.148239874325524 -0.380932203482732 1.779000000000000
-0.147906563759306 -0.375211161842329 1.775000000000000
-0.147656580834642 -0.369720690845908 1.772000000000000
-0.147156614985315 -0.363628947123211 1.766000000000000
-0.146656649135988 -0.357570090384394 1.760000000000000
-0.146240010928215 -0.351744544871549 1.755000000000000
-0.145990028003552 -0.346341772498808 1.752000000000000
-0.145823372720443 -0.341150386696119 1.750000000000000
-0.145490062154224 -0.335585558229146 1.746000000000000
-0.145323406871115 -0.330421578246356 1.744000000000000
-0.144740113380234 -0.324334953930817 1.737000000000000
-0.144656785738679 -0.319390582264050 1.736000000000000
-0.144240147530906 -0.313726731088614 1.731000000000000
-0.144156819889352 -0.308804284077767 1.730000000000000
-0.143740181681579 -0.303184282214171 1.725000000000000
-0.143573526398470 -0.298110741437052 1.723000000000000
-0.143240215832252 -0.292707607307488 1.719000000000000
-0.143073560549143 -0.287661472350268 1.717000000000000
-0.142573594699816 -0.281967113016120 1.711000000000000
-0.142406939416707 -0.276953865042781 1.709000000000000
-0.142573594699816 -0.272588841446370 1.711000000000000
-0.142740249982925 -0.268212855521999 1.713000000000000
-0.142740249982925 -0.263518238573143 1.713000000000000
-0.142573594699816 -0.258521434091744 1.711000000000000
-0.142240284133597 -0.253238885569740 1.707000000000000
-0.142156956492043 -0.248415099510532 1.706000000000000
-0.142240284133597 -0.243882538655909 1.707000000000000
-0.142240284133597 -0.239204365198994 1.707000000000000
-0.142073628850488 -0.234251410029434 1.705000000000000
-0.141906973567379 -0.229309417187834 1.703000000000000
-0.141906973567379 -0.224642206058879 1.703000000000000
-0.141823645925825 -0.219845825819571 1.702000000000000
-0.141906973567379 -0.215307783800968 1.703000000000000
-0.141906973567379 -0.210640572672013 1.703000000000000
-0.141823645925825 -0.205852414178675 1.702000000000000
-0.141740318284270 -0.201069736849317 1.701000000000000
-0.141740318284270 -0.196408006884342 1.701000000000000
-0.141656990642716 -0.191633551300954 1.700000000000000
-0.141573663001161 -0.186864576881547 1.699000000000000
-0.141407007718052 -0.181993839171687 1.697000000000000
-0.141490335359607 -0.177447575407113 1.698000000000000
-0.141240352434943 -0.172488777316751 1.695000000000000
-0.141240352434943 -0.167843490843716 1.695000000000000
-0.141240352434943 -0.163198204370680 1.695000000000000
-0.141740318284270 -0.159114167164539 1.701000000000000
-0.142323611775152 -0.155088043937010 1.708000000000000
-0.142240284133597 -0.150319069517603 1.707000000000000
-0.142156956492043 -0.145555576262175 1.706000000000000
-0.140740386585616 -0.139476296706369 1.689000000000000
-0.139740454886961 -0.133889390110884 1.677000000000000
-0.139573799603852 -0.129139238008584 1.675000000000000
-0.140323748377843 -0.125217980410320 1.684000000000000
-0.141073697151834 -0.121247392336237 1.693000000000000
-0.141240352434943 -0.116745339640326 1.695000000000000
-0.140657058944061 -0.111637103095213 1.688000000000000
-0.140740386585616 -0.107074395838700 1.689000000000000
-0.141490335359607 -0.102991443903027 1.698000000000000
-0.140490403660952 -0.097642967940672 1.686000000000000
-0.138490540263643 -0.091698185186606 1.662000000000000
-0.138490540263643 -0.087143337919241 1.662000000000000
-0.139490471962298 -0.083184797443585 1.674000000000000
-0.139657127245407 -0.078690966493645 1.676000000000000
-0.139740454886961 -0.074141962147082 1.677000000000000
-0.139657127245407 -0.069504535663193 1.676000000000000
-0.139490471962298 -0.064833860438603 1.674000000000000
-0.139740454886961 -0.060354094155435 1.677000000000000
-0.140490403660952 -0.056057376824542 1.686000000000000
-0.140740386585616 -0.051528280065555 1.689000000000000
-0.140073765453179 -0.046677296470679 1.681000000000000
-0.139657127245407 -0.041945243171840 1.676000000000000
-0.139157161396080 -0.037218309280159 1.670000000000000
-0.139573799603852 -0.032739266510636 1.675000000000000
-0.139407144320743 -0.028115181179875 1.673000000000000
-0.139073833754525 -0.023473928843529 1.669000000000000
-0.139490471962298 -0.018956517926147 1.674000000000000
-0.140407076019398 -0.014463202205620 1.685000000000000
-0.140657058944061 -0.009862850314893 1.688000000000000
-0.140157093094734 -0.005218133882911 1.682000000000000
-0.139823782528516 -0.000607027948455 1.678000000000000
-0.139323816679189 0.003977395679747 1.672000000000000
-0.139407144320743 0.008564768174169 1.673000000000000
-0.139240489037634 0.013134041865130 1.671000000000000
-0.139407144320743 0.017734755512681 1.673000000000000
-0.139490471962298 0.022333090335064 1.674000000000000
-0.139323816679189 0.026888661116075 1.672000000000000
-0.139240489037634 0.031452091886233 1.671000000000000
-0.138990506112970 0.035966915694217 1.668000000000000
-0.139157161396080 0.040586813415697 1.670000000000000
-0.139157161396080 0.045163585338983 1.670000000000000
-0.139240489037634 0.049770141907335 1.671000000000000
-0.139157161396080 0.054317129185554 1.670000000000000
-0.139157161396080 0.058893901108839 1.670000000000000
-0.138740523188307 0.063280641076939 1.665000000000000
-0.138740523188307 0.067843710090275 1.665000000000000
-0.138657195546752 0.072363291548593 1.664000000000000
-0.138740523188307 0.076969848116946 1.665000000000000
-0.138573867905198 0.081434979692287 1.663000000000000
-0.138823850829861 0.086147695444605 1.666000000000000
-0.138823850829861 0.090713505039930 1.666000000000000
-0.138907178471416 0.095336505100223 1.667000000000000
-0.138657195546752 0.099725262136667 1.664000000000000
-0.138573867905198 0.104222918939066 1.663000000000000
-0.138490540263643 0.108715094577484 1.662000000000000
-0.138490540263643 0.113269941844850 1.662000000000000
-0.138490540263643 0.117824789112216 1.662000000000000
-0.138323884980534 0.122232368465767 1.660000000000000
-0.138157229697425 0.126628985491359 1.658000000000000
-0.137907246772761 0.130935525068103 1.655000000000000
-0.137990574414316 0.135553043964416 1.656000000000000
-0.138073902055871 0.140176044024709 1.657000000000000
-0.138073902055871 0.144717188382125 1.657000000000000
-0.138157229697425 0.149348410188388 1.658000000000000
-0.138157229697425 0.153892295127793 1.658000000000000
-0.138240557338980 0.158531738680026 1.659000000000000
-0.138240557338980 0.163078364201422 1.659000000000000
-0.138573867905198 0.168029148830046 1.663000000000000
-0.138740523188307 0.172794297396995 1.665000000000000
-0.138823850829861 0.177463887351118 1.666000000000000
-0.138573867905198 0.181701912378113 1.663000000000000
-0.138657195546752 0.186371502332235 1.664000000000000
-0.138657195546752 0.190931830763581 1.664000000000000
-0.138823850829861 0.195727125732420 1.666000000000000
-0.138907178471416 0.200413159178483 1.667000000000000
-0.138657195546752 0.204612816057618 1.664000000000000
-0.138657195546752 0.209173144488964 1.664000000000000
-0.138323884980534 0.213219690533482 1.660000000000000
-0.138490540263643 0.218031428994261 1.662000000000000
-0.138407212622089 0.222452349500940 1.661000000000000
-0.138573867905198 0.227277790871669 1.663000000000000
-0.138323884980534 0.231417154947025 1.660000000000000
-0.138407212622089 0.236108669557067 1.661000000000000
-0.138240557338980 0.240370998065149 1.659000000000000
-0.138573867905198 0.245508142269092 1.663000000000000
-0.138657195546752 0.250216100371075 1.664000000000000
-0.138740523188307 0.254929539637037 1.665000000000000
-0.138490540263643 0.259025054400553 1.662000000000000
-0.138323884980534 0.263262717670725 1.660000000000000
-0.138240557338980 0.267650751193523 1.659000000000000
-0.138490540263643 0.272689596202650 1.662000000000000
-0.138657195546752 0.277578070959149 1.664000000000000
-0.138740523188307 0.282307953717051 1.665000000000000
-0.138657195546752 0.286698727821840 1.664000000000000
-0.138823850829861 0.291609127234259 1.666000000000000
-0.138907178471416 0.296352712902112 1.667000000000000
-0.138740523188307 0.300560229770394 1.665000000000000
-0.138573867905198 0.304756784310716 1.663000000000000
-0.138490540263643 0.309128374341575 1.662000000000000
-0.138407212622089 0.313494483208454 1.661000000000000
-0.138323884980534 0.317855110911353 1.660000000000000
-0.138157229697425 0.322016037885805 1.658000000000000
-0.137907246772761 0.325969042385841 1.655000000000000
-0.137990574414316 0.330704406307724 1.656000000000000
-0.138073902055871 0.335445251393586 1.657000000000000
-0.138407212622089 0.340807123320708 1.661000000000000
-0.138407212622089 0.345359230006084 1.661000000000000
-0.138490540263643 0.350121999747866 1.662000000000000
-0.138323884980534 0.354250039738439 1.660000000000000
-0.138073902055871 0.358150973180665 1.657000000000000
-0.138073902055871 0.362692117538080 1.657000000000000
-0.137990574414316 0.367011636511129 1.656000000000000
-0.138073902055871 0.371774406252912 1.657000000000000
-0.137823919131207 0.375634230965288 1.654000000000000
-0.137740591489652 0.379937306446397 1.653000000000000
-0.137657263848098 0.384234900763526 1.652000000000000
-0.137740591489652 0.388997670505308 1.653000000000000
-0.137907246772761 0.394003990287377 1.655000000000000
-0.138073902055871 0.399021272397406 1.657000000000000
-0.138073902055871 0.403562416754822 1.657000000000000
-0.137823919131207 0.407364689245408 1.654000000000000
-0.137740591489652 0.411648580652587 1.653000000000000
-0.137657263848098 0.415926990895787 1.652000000000000
-0.137657263848098 0.420454432343252 1.652000000000000
-0.137657263848098 0.424981873790718 1.652000000000000
-0.137573936206543 0.429249321705957 1.651000000000000
-0.137573936206543 0.433774022571433 1.651000000000000
-0.137573936206543 0.438298723436909 1.651000000000000
-0.137657263848098 0.443091639580581 1.652000000000000
-0.137740591489652 0.447890036888234 1.653000000000000
-0.137907246772761 0.452967611802042 1.655000000000000
-0.137990574414316 0.457779712019644 1.656000000000000
-0.137990574414316 0.462318115795070 1.656000000000000
-0.137907246772761 0.466574601382349 1.655000000000000
-0.137990574414316 0.471394923345922 1.656000000000000
-0.137990574414316 0.475933327121347 1.656000000000000
-0.138073902055871 0.480761870830890 1.657000000000000
-0.138073902055871 0.485303015188305 1.657000000000000
-0.138323884980534 0.490731022840010 1.660000000000000
-0.138490540263643 0.495877112303569 1.662000000000000
-0.138407212622089 0.500130857308858 1.661000000000000
-0.138323884980534 0.504379121150167 1.660000000000000
-0.138240557338980 0.508621903827497 1.659000000000000
-0.138407212622089 0.513787177364985 1.661000000000000
-0.138407212622089 0.518339284050361 1.661000000000000
-0.138323884980534 0.522576585563710 1.660000000000000
-0.138157229697425 0.526490860159063 1.658000000000000
-0.138323884980534 0.531675317770482 1.660000000000000
-0.138490540263643 0.536870737709860 1.662000000000000
-0.138740523188307 0.542402887477185 1.665000000000000
-0.138657195546752 0.546637448408544 1.664000000000000
-0.138573867905198 0.550866528175923 1.663000000000000
-0.138407212622089 0.554756137533367 1.661000000000000
-0.138407212622089 0.559308244218742 1.661000000000000
-0.138657195546752 0.564878762133927 1.664000000000000
-0.138907178471416 0.570465723541051 1.667000000000000
-0.139073833754525 0.575724176866199 1.669000000000000
-0.138907178471416 0.579602823895682 1.667000000000000
-0.138740523188307 0.583470508597206 1.665000000000000
-0.138573867905198 0.587327230970769 1.663000000000000
-0.138990506112970 0.593664388329506 1.668000000000000
-0.139323816679189 0.599670297024276 1.672000000000000
-0.139407144320743 0.604613945177398 1.673000000000000
-0.139323816679189 0.608834803198807 1.672000000000000
-0.139073833754525 0.612316427596564 1.669000000000000
-0.139240489037634 0.617629692561512 1.671000000000000
-0.139323816679189 0.622581562460604 1.672000000000000
-0.139407144320743 0.627538913523676 1.673000000000000
-0.139657127245407 0.633257422866320 1.676000000000000
-0.139823782528516 0.638611796561118 1.678000000000000
-0.139907110170070 0.643593812862099 1.679000000000000
-0.139990437811625 0.648581310327061 1.680000000000000
-0.139823782528516 0.652407886298734 1.678000000000000
-0.139907110170070 0.657398124345686 1.679000000000000
-0.139657127245407 0.660816715357673 1.676000000000000
-0.139657127245407 0.665409930772899 1.676000000000000
-0.139657127245407 0.670003146188124 1.676000000000000
-0.139657127245407 0.674596361603350 1.676000000000000
-0.139823782528516 0.680000065773968 1.678000000000000
-0.139657127245407 0.683782792433801 1.676000000000000
-0.139573799603852 0.687965282307351 1.675000000000000
-0.139407144320743 0.691728824893254 1.673000000000000
-0.139407144320743 0.696313818562510 1.673000000000000
-0.139323816679189 0.700479864944120 1.672000000000000
-0.139157161396080 0.704218742292113 1.670000000000000
-0.139073833754525 0.708371085763773 1.669000000000000
-0.139073833754525 0.712945117105068 1.669000000000000
-0.139240489037634 0.718378967677576 1.671000000000000
-0.139157161396080 0.722525829985256 1.670000000000000
-0.139240489037634 0.727537992688127 1.671000000000000
-0.139323816679189 0.732555636554979 1.672000000000000
-0.139490471962298 0.738019633529376 1.674000000000000
-0.139573799603852 0.743050980306178 1.675000000000000
-0.139323816679189 0.746302395816776 1.672000000000000
-0.139407144320743 0.751333742593577 1.673000000000000
-0.139490471962298 0.756370570534359 1.674000000000000
-0.139907110170070 0.763231179053184 1.679000000000000
-0.139990437811625 0.768289931649885 1.680000000000000
-0.139990437811625 0.772894109393071 1.680000000000000
-0.140073765453179 0.777961083735742 1.681000000000000
-0.140240420736289 0.783499076423869 1.683000000000000
-0.140490403660952 0.789516309203422 1.686000000000000
-0.140407076019398 0.793665912093092 1.685000000000000
-0.140573731302507 0.799231310601119 1.687000000000000
-0.140573731302507 0.803854672418235 1.687000000000000
-0.140823714227170 0.809915754509627 1.690000000000000
-0.140990369510279 0.815511299419545 1.692000000000000
-0.141157024793388 0.821117806657422 1.694000000000000
-0.141323680076498 0.826735276223259 1.696000000000000
-0.141740318284270 0.833834315375213 1.701000000000000
-0.142073628850488 0.840467817345691 1.705000000000000
-0.142323611775152 0.846627560388724 1.708000000000000
-0.142490267058261 0.852305322758341 1.710000000000000
-0.142740249982925 0.858495212203263 1.713000000000000
-0.142990232907588 0.864701545140126 1.716000000000000
-0.143240215832252 0.870924321568928 1.719000000000000
-0.143656854040025 0.878182314476302 1.724000000000000
-0.143990164606243 0.884955586128270 1.728000000000000
-0.144406802814015 0.892265650093454 1.733000000000000
-0.144573458097125 0.898050295160680 1.735000000000000
-0.144740113380234 0.903845902555867 1.737000000000000
-0.145073423946452 0.910698651085544 1.741000000000000
-0.145406734512670 0.917573324271142 1.745000000000000
-0.145656717437334 0.923941351545414 1.748000000000000
-0.145823372720443 0.929794511162390 1.750000000000000
-0.146156683286661 0.936726736569778 1.754000000000000
-0.146739976777543 0.945291263572732 1.761000000000000
-0.147073287343761 0.952275560037930 1.765000000000000
-0.147156614985315 0.957654960727460 1.766000000000000
-0.147156614985315 0.962494828521785 1.766000000000000
-0.147656580834642 0.970621224163163 1.772000000000000
-0.148489857250188 0.980982487681084 1.782000000000000
-0.149073150741070 0.989738855423338 1.789000000000000
-0.149073150741070 0.994641756603432 1.789000000000000
-0.149323133665733 1.001220808690934 1.792000000000000
-0.149573116590397 1.007816304270375 1.795000000000000
-0.149906427156615 1.014992441474871 1.799000000000000
-0.149906427156615 1.019922748474866 1.799000000000000
-0.150156410081279 1.026562093366147 1.802000000000000
-0.150656375930606 1.034935141386625 1.808000000000000
-0.151572979987706 1.046216878696360 1.819000000000000
-0.153822826309678 1.066805325498923 1.846000000000000
-0.153406188101906 1.068961231727170 1.841000000000000
-0.165785123966942 -0.897087101176806 2.057000000000000
-0.166188101905608 -0.893616592579600 2.062000000000000
-0.166268697493341 -0.888396145645489 2.063000000000000
-0.166510484256540 -0.884026002641921 2.066000000000000
-0.166026910730141 -0.875813048458971 2.060000000000000
-0.166268697493341 -0.871434683709433 2.063000000000000
-0.165865719554675 -0.863682509057623 2.058000000000000
-0.166349293081074 -0.860543972638029 2.064000000000000
-0.162883682808551 -0.837077257006298 2.021000000000000
-0.164898572501878 -0.841824767187560 2.046000000000000
-0.163609043098149 -0.818551437983370 2.030000000000000
-0.163044873984018 -0.810184649452158 2.023000000000000
-0.157644969605901 -0.729746254994711 1.956000000000000
-0.156597226965371 -0.719571252391158 1.943000000000000
-0.155468888737108 -0.709099905175863 1.929000000000000
-0.159821050474694 -0.718081143151560 1.983000000000000
-0.157322587254969 -0.696156235098085 1.952000000000000
-0.157080800491770 -0.689744928553028 1.949000000000000
-0.157322587254969 -0.685457003009159 1.952000000000000
-0.156839013728570 -0.678016892947386 1.946000000000000
-0.156677822553104 -0.671992370219740 1.944000000000000
-0.156355440202172 -0.665292940808910 1.940000000000000
-0.156436035789905 -0.660316405671909 1.941000000000000
-0.156839013728570 -0.656684202737293 1.946000000000000
-0.156758418140837 -0.651016317425168 1.945000000000000
-0.156677822553104 -0.645353913277024 1.944000000000000
-0.156677822553104 -0.640026221888480 1.944000000000000
-0.156597226965371 -0.634372039486305 1.943000000000000
-0.156113653438973 -0.627104586089902 1.937000000000000
-0.155710675500307 -0.620191029527030 1.932000000000000
-0.155791271088040 -0.615214494390029 1.933000000000000
-0.155871866675774 -0.610232478089047 1.934000000000000
-0.155468888737108 -0.603368252001995 1.929000000000000
-0.155388293149375 -0.597771621821610 1.928000000000000
-0.155388293149375 -0.592487779744907 1.928000000000000
-0.155227101973909 -0.586594804952780 1.926000000000000
-0.154179359333379 -0.577392708955674 1.913000000000000
-0.153695785806980 -0.570355464446430 1.907000000000000
-0.153292807868315 -0.563647451532807 1.902000000000000
-0.153131616692849 -0.557847656528340 1.900000000000000
-0.152648043166450 -0.550895370060786 1.894000000000000
-0.152889829929650 -0.546569076369058 1.897000000000000
-0.153051021105116 -0.541940956901608 1.899000000000000
-0.152486851990984 -0.534758099790071 1.892000000000000
-0.151600300525920 -0.526494006347188 1.881000000000000
-0.151358513762721 -0.520507490010579 1.878000000000000
-0.151197322587255 -0.514811837121731 1.876000000000000
-0.150874940236323 -0.508583787813180 1.872000000000000
-0.149907793183526 -0.500226152825814 1.860000000000000
-0.149101837306195 -0.492466688225912 1.850000000000000
-0.148537668192063 -0.485552408149395 1.843000000000000
-0.148134690253398 -0.479197930312481 1.838000000000000
-0.148054094665665 -0.473902764150995 1.837000000000000
-0.147651116727000 -0.467592135625922 1.832000000000000
-0.147409329963800 -0.461813903520552 1.829000000000000
-0.147167543200601 -0.456052114907122 1.826000000000000
-0.147167543200601 -0.451047812193397 1.826000000000000
-0.146925756437402 -0.445310688817877 1.823000000000000
-0.146603374086470 -0.439348475962355 1.819000000000000
-0.146119800560071 -0.432930602982849 1.813000000000000
-0.146039204972338 -0.427725876027033 1.812000000000000
-0.145475035858206 -0.421126762879365 1.805000000000000
-0.145233249095007 -0.415488300455485 1.802000000000000
-0.144910866744075 -0.409638451461552 1.798000000000000
-0.144749675568609 -0.404260706083544 1.796000000000000
-0.144669079980876 -0.399116271931507 1.795000000000000
-0.144507888805409 -0.393757710627429 1.793000000000000
-0.144185506454477 -0.387976376183246 1.789000000000000
-0.143943719691278 -0.382431093547026 1.786000000000000
-0.143621337340346 -0.376690867832693 1.782000000000000
-0.143218359401680 -0.370763920786218 1.777000000000000
-0.142412403524349 -0.363834852529283 1.767000000000000
-0.142009425585684 -0.357976420032558 1.762000000000000
-0.141606447647019 -0.352145393355733 1.757000000000000
-0.141525852059286 -0.347132507139216 1.756000000000000
-0.141042278532887 -0.341150386696119 1.750000000000000
-0.140800491769688 -0.335777760725268 1.747000000000000
-0.140558705006489 -0.330421578246356 1.744000000000000
-0.140155727067823 -0.324708396595101 1.739000000000000
-0.140075131480090 -0.319758543764354 1.738000000000000
-0.139672153541425 -0.314089211424938 1.733000000000000
-0.139510962365959 -0.308982783663939 1.731000000000000
-0.139027388839560 -0.303184282214171 1.725000000000000
-0.138946793251827 -0.298283759859244 1.724000000000000
-0.138624410900895 -0.292877885147690 1.720000000000000
-0.138463219725429 -0.287829009608480 1.718000000000000
-0.138140837374496 -0.282461503044787 1.714000000000000
-0.138140837374496 -0.277764145513941 1.714000000000000
-0.138221432962229 -0.273226103495338 1.715000000000000
-0.138382624137696 -0.268839155243007 1.717000000000000
-0.138382624137696 -0.264133575966192 1.717000000000000
-0.138382624137696 -0.259427996689377 1.717000000000000
-0.138060241786763 -0.254129004675433 1.713000000000000
-0.137818455023564 -0.248997549919701 1.710000000000000
-0.137737859435831 -0.244168282696513 1.709000000000000
-0.137737859435831 -0.239484628075618 1.709000000000000
-0.137576668260365 -0.234526191742078 1.707000000000000
-0.137496072672632 -0.229713368010831 1.706000000000000
-0.137254285909432 -0.224642206058879 1.703000000000000
-0.137496072672632 -0.220362502260980 1.706000000000000
-0.137415477084899 -0.215560640857693 1.705000000000000
-0.137576668260365 -0.211135324457502 1.707000000000000
-0.137415477084899 -0.206215256271822 1.705000000000000
-0.137334881497166 -0.201424357196494 1.704000000000000
-0.137173690321699 -0.196523473084744 1.702000000000000
-0.137173690321699 -0.191859002537779 1.702000000000000
-0.137012499146233 -0.186974561917969 1.700000000000000
-0.136690116795301 -0.181886594717254 1.696000000000000
-0.136609521207568 -0.177134063789786 1.695000000000000
-0.136609521207568 -0.172488777316751 1.695000000000000
-0.136609521207568 -0.167843490843716 1.695000000000000
-0.136609521207568 -0.163198204370680 1.695000000000000
-0.136448330032102 -0.158365834808680 1.693000000000000
-0.136690116795301 -0.153998432387102 1.696000000000000
-0.137093094733966 -0.149790707234588 1.701000000000000
-0.137737859435831 -0.145811535657712 1.709000000000000
-0.136690116795301 -0.140054351222026 1.696000000000000
-0.135642374154771 -0.134368421918079 1.683000000000000
-0.135964756505703 -0.130064414639093 1.687000000000000
-0.136528925619835 -0.125961555115844 1.694000000000000
-0.137657263848098 -0.122321645664673 1.708000000000000
-0.137415477084899 -0.117434102706051 1.705000000000000
-0.136690116795301 -0.112166188891873 1.696000000000000
-0.136690116795301 -0.107518161836848 1.696000000000000
-0.137173690321699 -0.103234062145437 1.702000000000000
-0.136931903558500 -0.098395849662634 1.699000000000000
-0.134917013865173 -0.092360265946076 1.674000000000000
-0.134755822689707 -0.087667666065566 1.672000000000000
-0.134836418277440 -0.083135105210943 1.673000000000000
-0.135239396216105 -0.078784869794950 1.678000000000000
-0.135642374154771 -0.074407228559057 1.683000000000000
-0.136125947681169 -0.070043651989937 1.689000000000000
-0.136287138856635 -0.065492268818206 1.691000000000000
-0.136609521207568 -0.061001901963901 1.695000000000000
-0.136851307970767 -0.056456361712973 1.698000000000000
-0.136851307970767 -0.051802853493968 1.698000000000000
-0.136287138856635 -0.046954972237904 1.691000000000000
-0.135803565330237 -0.042170486124433 1.685000000000000
-0.135319991803839 -0.037418886994842 1.679000000000000
-0.135481182979305 -0.032856541495152 1.681000000000000
-0.135561778567038 -0.028266428418739 1.682000000000000
-0.135239396216105 -0.023600510844483 1.678000000000000
-0.135722969742504 -0.019069758773973 1.684000000000000
-0.136045352093436 -0.014488952713998 1.688000000000000
-0.135964756505703 -0.009857007394090 1.687000000000000
-0.135561778567038 -0.005218133882911 1.682000000000000
-0.135319991803839 -0.000607389705278 1.679000000000000
-0.135078205040639 0.003986910980416 1.676000000000000
-0.135158800628372 0.008585245802799 1.677000000000000
-0.135078205040639 0.013173341810867 1.676000000000000
-0.135158800628372 0.017777157797230 1.677000000000000
-0.135319991803839 0.022399796100700 1.679000000000000
-0.135400587391572 0.027017314997013 1.680000000000000
-0.135400587391572 0.031621492740198 1.680000000000000
-0.135078205040639 0.036139418886995 1.676000000000000
-0.135078205040639 0.040732634302220 1.676000000000000
-0.134997609452906 0.045298805654369 1.675000000000000
-0.134997609452906 0.049889280487604 1.675000000000000
-0.134917013865173 0.054447230093783 1.674000000000000
-0.134755822689707 0.058964432726934 1.672000000000000
-0.134594631514241 0.063470673032125 1.670000000000000
-0.134514035926508 0.068006697982384 1.669000000000000
-0.134514035926508 0.072580729323679 1.669000000000000
-0.134594631514241 0.077200988801982 1.670000000000000
-0.134514035926508 0.081728792006270 1.669000000000000
-0.134755822689707 0.086457951250528 1.672000000000000
-0.134594631514241 0.090931304571839 1.670000000000000
-0.134514035926508 0.095450886030157 1.669000000000000
-0.134272249163309 0.099845124230582 1.666000000000000
-0.134191653575575 0.104348262196960 1.665000000000000
-0.134352844751042 0.109042155632170 1.667000000000000
-0.134272249163309 0.113542553016559 1.666000000000000
-0.134272249163309 0.118108362611884 1.666000000000000
-0.134030462400109 0.122453270336489 1.663000000000000
-0.133788675636910 0.126781734569153 1.660000000000000
-0.133788675636910 0.131331100672539 1.660000000000000
-0.133869271224643 0.135962322478802 1.661000000000000
-0.133788675636910 0.140429832879310 1.660000000000000
-0.133708080049177 0.144891862115839 1.659000000000000
-0.133708080049177 0.149438487637235 1.659000000000000
-0.133788675636910 0.154077931189467 1.660000000000000
-0.133788675636910 0.158627297292853 1.660000000000000
-0.133949866812376 0.163373261785873 1.662000000000000
-0.134352844751042 0.168433307937274 1.667000000000000
-0.134594631514241 0.173313199190980 1.670000000000000
-0.134594631514241 0.177889971114266 1.670000000000000
-0.134433440338775 0.182248219991997 1.668000000000000
-0.134433440338775 0.186819510751303 1.668000000000000
-0.134514035926508 0.191505544197366 1.669000000000000
-0.134433440338775 0.195962092269914 1.668000000000000
-0.134594631514241 0.200773830730694 1.670000000000000
-0.134191653575575 0.204735780490345 1.665000000000000
-0.134272249163309 0.209424554518397 1.666000000000000
-0.133869271224643 0.213348136130189 1.661000000000000
-0.134030462400109 0.218162615172958 1.663000000000000
-0.133949866812376 0.222586276261627 1.662000000000000
-0.134191653575575 0.227551125557023 1.665000000000000
-0.134030462400109 0.231835378721025 1.663000000000000
-0.134030462400109 0.236392966570381 1.663000000000000
-0.133949866812376 0.240805665331090 1.662000000000000
-0.134352844751042 0.246098660951640 1.667000000000000
-0.134514035926508 0.250967951634209 1.669000000000000
-0.134433440338775 0.255388872140888 1.668000000000000
-0.134272249163309 0.259648460066980 1.666000000000000
-0.134030462400109 0.263738493666515 1.663000000000000
-0.134111057987842 0.268457414096458 1.664000000000000
-0.134191653575575 0.273181815690380 1.665000000000000
-0.134433440338775 0.278245325937416 1.668000000000000
-0.134352844751042 0.282647062370165 1.667000000000000
-0.134272249163309 0.287043317638934 1.666000000000000
-0.134272249163309 0.291609127234259 1.666000000000000
-0.134514035926508 0.296708265047165 1.669000000000000
-0.134433440338775 0.301101779733944 1.668000000000000
-0.134352844751042 0.305489813256743 1.667000000000000
-0.134191653575575 0.309686367797065 1.665000000000000
-0.134191653575575 0.314249436810401 1.665000000000000
-0.134191653575575 0.318812505823737 1.665000000000000
-0.134030462400109 0.322987135708139 1.663000000000000
-0.133788675636910 0.326953843118125 1.660000000000000
-0.133788675636910 0.331503209221510 1.660000000000000
-0.133869271224643 0.336255016635333 1.661000000000000
-0.133949866812376 0.341012305213135 1.662000000000000
-0.134030462400109 0.345775074954917 1.663000000000000
-0.134030462400109 0.350332662804273 1.663000000000000
-0.133869271224643 0.354463443376835 1.661000000000000
-0.133627484461444 0.358367117401051 1.658000000000000
-0.133627484461444 0.362911002340457 1.658000000000000
-0.133708080049177 0.367676512664229 1.659000000000000
-0.133708080049177 0.372223138185625 1.659000000000000
-0.133708080049177 0.376769763707021 1.659000000000000
-0.133546888873711 0.380856694967743 1.657000000000000
-0.133466293285978 0.385165251612832 1.656000000000000
-0.133305102110512 0.389232998799625 1.654000000000000
-0.133466293285978 0.394242059163684 1.656000000000000
-0.133627484461444 0.399262081855703 1.658000000000000
-0.133708080049177 0.404049516835395 1.659000000000000
-0.133466293285978 0.407857270489961 1.656000000000000
-0.133385697698245 0.412146643061120 1.655000000000000
-0.133224506522779 0.416178762682043 1.653000000000000
-0.133305102110512 0.420963457079745 1.654000000000000
-0.133143910935045 0.424981873790718 1.652000000000000
-0.133143910935045 0.429509315238184 1.652000000000000
-0.133224506522779 0.434299490799866 1.653000000000000
-0.133305102110512 0.439095147525528 1.654000000000000
-0.133385697698245 0.443896285415171 1.655000000000000
-0.133466293285978 0.448702904468793 1.656000000000000
-0.133627484461444 0.453788701128572 1.658000000000000
-0.133788675636910 0.458885460116310 1.660000000000000
-0.133708080049177 0.463155648613540 1.659000000000000
-0.133788675636910 0.467984192323082 1.660000000000000
-0.133708080049177 0.472248899656331 1.659000000000000
-0.133788675636910 0.477082924529853 1.660000000000000
-0.133788675636910 0.481632290633239 1.660000000000000
-0.133869271224643 0.486474537252731 1.661000000000000
-0.134030462400109 0.491617886134299 1.663000000000000
-0.134191653575575 0.496772197343828 1.665000000000000
-0.134191653575575 0.501335266357164 1.665000000000000
-0.134191653575575 0.505898335370499 1.665000000000000
-0.134191653575575 0.510461404383835 1.665000000000000
-0.134272249163309 0.515333797405217 1.666000000000000
-0.134191653575575 0.519587542410506 1.665000000000000
-0.134111057987842 0.523835806251816 1.664000000000000
-0.133949866812376 0.527761043175129 1.662000000000000
-0.134111057987842 0.532956463114507 1.664000000000000
-0.134191653575575 0.537839818463849 1.665000000000000
-0.134433440338775 0.543380189977143 1.668000000000000
-0.134352844751042 0.547622972654473 1.667000000000000
-0.134352844751042 0.552191522831789 1.667000000000000
-0.134191653575575 0.556092094517192 1.665000000000000
-0.134272249163309 0.560991893358474 1.666000000000000
-0.134272249163309 0.565557702953799 1.666000000000000
-0.134594631514241 0.571492356516830 1.670000000000000
-0.134755822689707 0.576759031587948 1.672000000000000
-0.134675227101974 0.580993592519307 1.671000000000000
-0.134433440338775 0.584521806810894 1.668000000000000
-0.134352844751042 0.588739924250314 1.667000000000000
-0.134755822689707 0.595088043937010 1.672000000000000
-0.135158800628372 0.601463569443607 1.677000000000000
-0.135158800628372 0.606059525440823 1.677000000000000
-0.135239396216105 0.611019617085884 1.678000000000000
-0.134997609452906 0.614517684975581 1.675000000000000
-0.135158800628372 0.619847393432469 1.677000000000000
-0.135158800628372 0.624443349429685 1.677000000000000
-0.135319991803839 0.629789501378513 1.679000000000000
-0.135400587391572 0.634768777097504 1.680000000000000
-0.135561778567038 0.640134113120262 1.682000000000000
-0.135561778567038 0.644743772027428 1.682000000000000
-0.135722969742504 0.650125551542125 1.684000000000000
-0.135561778567038 0.653963089841759 1.682000000000000
-0.135561778567038 0.658572748748924 1.682000000000000
-0.135400587391572 0.662393843556618 1.680000000000000
-0.135481182979305 0.667395043931529 1.681000000000000
-0.135481182979305 0.672001962256705 1.681000000000000
-0.135561778567038 0.677011384377586 1.682000000000000
-0.135642374154771 0.682026287662448 1.683000000000000
-0.135481182979305 0.685822717232231 1.681000000000000
-0.135400587391572 0.690018910015731 1.680000000000000
-0.135239396216105 0.693796155511584 1.678000000000000
-0.135078205040639 0.697562438679478 1.676000000000000
-0.134917013865173 0.701317759519411 1.674000000000000
-0.134755822689707 0.705062118031385 1.672000000000000
-0.134755822689707 0.709644371118651 1.672000000000000
-0.134675227101974 0.713799455172300 1.671000000000000
-0.134917013865173 0.719668696524394 1.674000000000000
-0.134675227101974 0.722958480182852 1.671000000000000
-0.134755822689707 0.727973383467713 1.672000000000000
-0.134675227101974 0.732117505193403 1.671000000000000
-0.134997609452906 0.738460505472942 1.675000000000000
-0.134997609452906 0.743050980306178 1.675000000000000
-0.134997609452906 0.747641455139413 1.675000000000000
-0.135078205040639 0.752681023662185 1.676000000000000
-0.135319991803839 0.758629741891988 1.679000000000000
-0.135642374154771 0.765049478467247 1.683000000000000
-0.135803565330237 0.770576508827414 1.685000000000000
-0.135722969742504 0.774734333463054 1.684000000000000
-0.135884160917970 0.780275066733171 1.686000000000000
-0.136045352093436 0.785826762331248 1.688000000000000
-0.136287138856635 0.791857698020752 1.691000000000000
-0.136125947681169 0.795549985474915 1.689000000000000
-0.136287138856635 0.801126346310903 1.691000000000000
-0.136448330032102 0.806713669474850 1.693000000000000
-0.136770712383034 0.813270435149608 1.697000000000000
-0.137012499146233 0.819367144806871 1.700000000000000
-0.137093094733966 0.824510855445262 1.701000000000000
-0.137173690321699 0.829660047247633 1.702000000000000
-0.137496072672632 0.836285327472142 1.706000000000000
-0.137899050611297 0.843425475353946 1.711000000000000
-0.137979646199030 0.848610294722187 1.712000000000000
-0.138060241786763 0.853800595254408 1.713000000000000
-0.138302028549962 0.859998706445301 1.716000000000000
-0.138785602076361 0.867724977116140 1.722000000000000
-0.139269175602759 0.875484134770860 1.728000000000000
-0.139510962365959 0.881748019929512 1.731000000000000
-0.139752749129158 0.888028348580104 1.734000000000000
-0.139994535892357 0.894325120722637 1.737000000000000
-0.140236322655556 0.900638336357109 1.740000000000000
-0.140558705006489 0.907488344304797 1.744000000000000
-0.140719896181955 0.913314098101873 1.746000000000000
-0.141122874120620 0.920728304182676 1.751000000000000
-0.141364660883819 0.927112774948888 1.754000000000000
-0.141606447647019 0.933513689207040 1.757000000000000
-0.142009425585684 0.940999150419583 1.762000000000000
-0.142412403524349 0.948512017452026 1.767000000000000
-0.142895977050748 0.956591823199575 1.773000000000000
-0.143057168226214 0.962535422022221 1.775000000000000
-0.143218359401680 0.968489983172827 1.777000000000000
-0.143701932928079 0.976646525216095 1.783000000000000
-0.144185506454477 0.984835954243243 1.789000000000000
-0.144588484393143 0.992505034449116 1.794000000000000
-0.144669079980876 0.997977614926306 1.795000000000000
-0.144749675568609 1.003455676567476 1.796000000000000
-0.145152653507274 1.011185049577128 1.801000000000000
-0.145233249095007 1.016685035874218 1.802000000000000
-0.145394440270473 1.022757442050394 1.804000000000000
-0.145716822621406 1.029980169148721 1.808000000000000
-0.146683969674203 1.041804179935651 1.820000000000000
-0.149021241718462 1.063471692528625 1.849000000000000
-0.149907793183526 1.074895940101840 1.860000000000000
-0.160009562188375 -0.896214872590343 2.055000000000000
-0.160321016324022 -0.892316471445876 2.059000000000000
-0.160632470459668 -0.888396145645489 2.063000000000000
-0.161021788129226 -0.884881787736444 2.068000000000000
-0.160398879857933 -0.875813048458971 2.060000000000000
-0.159698108052729 -0.866365747110056 2.051000000000000
-0.160398879857933 -0.864521850660206 2.060000000000000
-0.157517929103203 -0.843449833646673 2.023000000000000
-0.155026296018032 -0.824651567886956 1.991000000000000
-0.154636978348473 -0.817137823868277 1.986000000000000
-0.155727067823236 -0.811935782682811 2.000000000000000
-0.160398879857933 -0.825002658364530 2.060000000000000
-0.160710333993580 -0.820948044046634 2.064000000000000
-0.162267604671812 -0.817480221219778 2.084000000000000
-0.155182023085855 -0.743550248570786 1.993000000000000
-0.149186530974660 -0.709572063603427 1.916000000000000
-0.157440065569292 -0.732203767752120 2.022000000000000
-0.152301072331125 -0.702943363132595 1.956000000000000
-0.153469025339799 -0.702932345992995 1.971000000000000
-0.151756027593744 -0.689744928553028 1.949000000000000
-0.152768253534595 -0.688968565524575 1.962000000000000
-0.152534662932860 -0.682546296651557 1.959000000000000
-0.151833891127655 -0.674066420745109 1.950000000000000
-0.151444573458097 -0.667007613336768 1.945000000000000
-0.151366709924185 -0.661336987442653 1.944000000000000
-0.151522436992009 -0.656684202737293 1.946000000000000
-0.151600300525920 -0.651685742944372 1.947000000000000
-0.151522436992009 -0.646017857632247 1.946000000000000
-0.151833891127655 -0.642001611462210 1.950000000000000
-0.151444573458097 -0.635025021513569 1.945000000000000
-0.150899528720716 -0.627428336521544 1.938000000000000
-0.150588074585069 -0.620833049226334 1.934000000000000
-0.150977392254627 -0.617124109995999 1.939000000000000
-0.151366709924185 -0.613387764945764 1.944000000000000
-0.151055255788539 -0.606808921142494 1.940000000000000
-0.150510211051158 -0.599321859430069 1.933000000000000
-0.150510211051158 -0.594024314443415 1.933000000000000
-0.150276620449423 -0.587813070383627 1.930000000000000
-0.149264394508572 -0.578600012058561 1.917000000000000
-0.148952940372925 -0.572149975608820 1.913000000000000
-0.148563622703367 -0.565425519203258 1.908000000000000
-0.148485759169456 -0.559902884736603 1.907000000000000
-0.147862850898163 -0.552349687299595 1.899000000000000
-0.148018577965986 -0.547721567832145 1.901000000000000
-0.148096441499898 -0.542797103752953 1.902000000000000
-0.147940714432074 -0.537019233404406 1.900000000000000
-0.147395669694693 -0.529852819784809 1.893000000000000
-0.147239942626870 -0.524110577002132 1.891000000000000
-0.146928488491223 -0.517830456635771 1.887000000000000
-0.146617034355577 -0.511572260925330 1.883000000000000
-0.145838399016461 -0.503722357119758 1.873000000000000
-0.145137627211256 -0.496193463163838 1.864000000000000
-0.144358991872140 -0.488450442055875 1.854000000000000
-0.143891810668670 -0.481805100771200 1.848000000000000
-0.143658220066935 -0.475966575862050 1.845000000000000
-0.143424629465200 -0.470144494444840 1.842000000000000
-0.143191038863466 -0.464338856519570 1.839000000000000
-0.143113175329554 -0.459049171522064 1.838000000000000
-0.143035311795642 -0.453764967688538 1.837000000000000
-0.142801721193908 -0.447997697911128 1.834000000000000
-0.142256676456526 -0.441280739737891 1.827000000000000
-0.141711631719145 -0.434602149712513 1.820000000000000
-0.141555904651322 -0.429142186874805 1.818000000000000
-0.141322314049587 -0.423459875139085 1.815000000000000
-0.141010859913940 -0.417563436251322 1.811000000000000
-0.140777269312205 -0.411916752081472 1.808000000000000
-0.140465815176559 -0.406061421923560 1.804000000000000
-0.140154361040913 -0.400228016421567 1.800000000000000
-0.139842906905266 -0.394416535575495 1.796000000000000
-0.139687179837443 -0.389060714853406 1.794000000000000
-0.139297862167885 -0.383073475003152 1.789000000000000
-0.139064271566150 -0.377536414112901 1.786000000000000
-0.138752817430503 -0.371807150726528 1.782000000000000
-0.138129909159210 -0.365276190371787 1.774000000000000
-0.137896318557476 -0.359804903449297 1.771000000000000
-0.137429137354006 -0.353748787292469 1.765000000000000
-0.137195546752271 -0.348318609099828 1.762000000000000
-0.136572638480978 -0.341930159008567 1.754000000000000
-0.136494774947066 -0.336930975702000 1.753000000000000
-0.136339047879243 -0.331747811645281 1.751000000000000
-0.136027593743597 -0.326202167252238 1.747000000000000
-0.135716139607950 -0.320678447515114 1.743000000000000
-0.135326821938392 -0.314995412265749 1.738000000000000
-0.135093231336657 -0.309696782008627 1.735000000000000
-0.134703913667099 -0.304063077235082 1.730000000000000
-0.134626050133188 -0.299148851970204 1.729000000000000
-0.134236732463630 -0.293558996508499 1.724000000000000
-0.134003141861895 -0.288331621383117 1.721000000000000
-0.133769551260160 -0.283120689749675 1.718000000000000
-0.133847414794071 -0.278574425985102 1.719000000000000
-0.133847414794071 -0.273863365544307 1.719000000000000
-0.133691687726248 -0.268839155243007 1.717000000000000
-0.133691687726248 -0.264133575966192 1.717000000000000
-0.133847414794071 -0.259730184221921 1.719000000000000
-0.133691687726248 -0.254722417412562 1.717000000000000
-0.133380233590602 -0.249434387726578 1.713000000000000
-0.133302370056690 -0.244596898757420 1.712000000000000
-0.133380233590602 -0.240045153828867 1.713000000000000
-0.133380233590602 -0.235350536880012 1.713000000000000
-0.133302370056690 -0.230521269656824 1.712000000000000
-0.132990915921044 -0.225301754520590 1.708000000000000
-0.133224506522779 -0.221008347812742 1.711000000000000
-0.132990915921044 -0.215939926442779 1.708000000000000
-0.133146642988867 -0.211506388296619 1.710000000000000
-0.132913052387132 -0.206457151000587 1.707000000000000
-0.132913052387132 -0.201778977543671 1.707000000000000
-0.132757325319309 -0.196869871685951 1.705000000000000
-0.132679461785397 -0.192084453774604 1.704000000000000
-0.132601598251486 -0.187304517027236 1.703000000000000
-0.132290144115839 -0.182208328080551 1.699000000000000
-0.132445871183662 -0.177761087024441 1.701000000000000
-0.132368007649751 -0.172997593769013 1.700000000000000
-0.132523734717574 -0.168536649802952 1.702000000000000
-0.132290144115839 -0.163583332876570 1.699000000000000
-0.131978689980193 -0.158552917897645 1.695000000000000
-0.132212280581927 -0.154180034312087 1.698000000000000
-0.132523734717574 -0.149878767615091 1.702000000000000
-0.133380233590602 -0.146152814851762 1.713000000000000
-0.132445871183662 -0.140467247304638 1.701000000000000
-0.132523734717574 -0.135885355974195 1.702000000000000
-0.132368007649751 -0.131066689322144 1.700000000000000
-0.133380233590602 -0.127374347056341 1.713000000000000
-0.133146642988867 -0.122464879441798 1.710000000000000
-0.133535960658425 -0.118122865771775 1.715000000000000
-0.132445871183662 -0.112496867514785 1.701000000000000
-0.132601598251486 -0.107961927834995 1.703000000000000
-0.132679461785397 -0.103355371266642 1.704000000000000
-0.132601598251486 -0.098627505577084 1.703000000000000
-0.131044327573253 -0.092856826515679 1.683000000000000
-0.130966464039342 -0.088191994211891 1.682000000000000
-0.131200054641076 -0.083731412002653 1.685000000000000
-0.132290144115839 -0.079770854458653 1.699000000000000
-0.132601598251486 -0.075291449932308 1.703000000000000
-0.132601598251486 -0.070624238803352 1.703000000000000
-0.132445871183662 -0.065879567865032 1.701000000000000
-0.132445871183662 -0.061217837900056 1.701000000000000
-0.132601598251486 -0.056622605416486 1.703000000000000
-0.131589372310635 -0.051558788224267 1.690000000000000
-0.131044327573253 -0.046732831624124 1.683000000000000
-0.131044327573253 -0.042120432134968 1.683000000000000
-0.131277918174988 -0.037574891884041 1.686000000000000
-0.131589372310635 -0.033032453971926 1.690000000000000
-0.131122191107165 -0.028300038916264 1.684000000000000
-0.131044327573253 -0.023670834178346 1.683000000000000
-0.131200054641076 -0.019081082858756 1.685000000000000
-0.131745099378458 -0.014523286725169 1.692000000000000
-0.131589372310635 -0.009874536156498 1.690000000000000
-0.131122191107165 -0.005224338560537 1.684000000000000
-0.130888600505430 -0.000608113218923 1.681000000000000
