# This PCD file was generated using the MATLAB® pcwrite function
# from Computer Vision System Toolbox®.
# .PCD v.7 - Point Cloud Data file format
VERSION .7
FIELDS x y z
SIZE 8 8 8
TYPE F F F
COUNT 1 1 1
WIDTH 862
HEIGHT 1
VIEWPOINT 0 0 0 1 0 0 0
POINTS 862
DATA ascii
-0.115026296018032 0.301545984225210 1.531000000000000
-0.114951164537941 0.305542114523440 1.530000000000000
-0.115026296018032 0.309937646278564 1.531000000000000
-0.115101427498122 0.314338659197667 1.532000000000000
-0.115251690458302 0.318953075755167 1.534000000000000
-0.115251690458302 0.323157128527814 1.534000000000000
-0.115176558978212 0.327147777662064 1.533000000000000
-0.115251690458302 0.331565234073108 1.534000000000000
-0.115326821938392 0.335988171648131 1.535000000000000
-0.115401953418482 0.340416590387135 1.536000000000000
-0.115477084898573 0.344850490290118 1.537000000000000
-0.115401953418482 0.348835658260388 1.536000000000000
-0.115477084898573 0.353275039327351 1.537000000000000
-0.115326821938392 0.357022138421315 1.535000000000000
-0.115401953418482 0.361464260070268 1.536000000000000
-0.115477084898573 0.365911862883202 1.537000000000000
-0.115477084898573 0.370124137401819 1.537000000000000
-0.115552216378663 0.374579961960722 1.538000000000000
-0.115477084898573 0.378548686439052 1.537000000000000
-0.115552216378663 0.383009992161935 1.538000000000000
-0.115552216378663 0.387225007262542 1.538000000000000
-0.115552216378663 0.391440022363149 1.538000000000000
-0.115552216378663 0.395655037463756 1.538000000000000
-0.115401953418482 0.399350065499909 1.536000000000000
-0.115401953418482 0.403559599436536 1.536000000000000
-0.115401953418482 0.407769133373163 1.536000000000000
-0.115477084898573 0.412246882587986 1.537000000000000
-0.115326821938392 0.415917245386230 1.535000000000000
-0.115326821938392 0.420124038740867 1.535000000000000
-0.115251690458302 0.424054395071337 1.534000000000000
-0.115401953418482 0.428816803056297 1.536000000000000
-0.115401953418482 0.433026336992924 1.536000000000000
-0.115477084898573 0.437520529699687 1.537000000000000
-0.115401953418482 0.441445404866177 1.536000000000000
-0.115326821938392 0.445364798868688 1.535000000000000
-0.115251690458302 0.449278711707218 1.534000000000000
-0.115326821938392 0.453778385577961 1.535000000000000
-0.115326821938392 0.457985178932598 1.535000000000000
-0.115251690458302 0.461890870025159 1.534000000000000
-0.115251690458302 0.466094922797805 1.534000000000000
-0.115251690458302 0.470298975570452 1.534000000000000
-0.115326821938392 0.474812352351145 1.535000000000000
-0.115101427498122 0.478082951935673 1.532000000000000
-0.115176558978212 0.482596328716366 1.533000000000000
-0.115101427498122 0.486480095153007 1.532000000000000
-0.115176558978212 0.490998953097680 1.533000000000000
-0.114951164537941 0.494231184534348 1.530000000000000
-0.114876033057851 0.498098507479048 1.529000000000000
-0.114951164537941 0.502617365423721 1.530000000000000
-0.115026296018032 0.507141704532375 1.531000000000000
-0.114951164537941 0.511003546313095 1.530000000000000
-0.114876033057851 0.514859906929836 1.529000000000000
-0.114876033057851 0.519050256792532 1.529000000000000
-0.114876033057851 0.523240606655229 1.529000000000000
-0.114951164537941 0.527775908091842 1.530000000000000
-0.115026296018032 0.532316690692435 1.531000000000000
-0.115101427498122 0.536862954457008 1.532000000000000
-0.114951164537941 0.540355179425903 1.530000000000000
-0.114876033057851 0.544192355968714 1.529000000000000
-0.114876033057851 0.548382705831410 1.529000000000000
-0.115026296018032 0.553295845825820 1.531000000000000
-0.115026296018032 0.557491676852496 1.531000000000000
-0.115026296018032 0.561687507879173 1.531000000000000
-0.115101427498122 0.566252955717676 1.532000000000000
-0.115101427498122 0.570451527326343 1.532000000000000
-0.115101427498122 0.574650098935010 1.532000000000000
-0.115101427498122 0.578848670543677 1.532000000000000
-0.115251690458302 0.583808400431916 1.534000000000000
-0.115326821938392 0.588395772926339 1.535000000000000
-0.115326821938392 0.592602566280975 1.535000000000000
-0.115251690458302 0.596420558749856 1.534000000000000
-0.115326821938392 0.601016152990249 1.535000000000000
-0.115326821938392 0.605222946344886 1.535000000000000
-0.115251690458302 0.609032717067796 1.534000000000000
-0.115251690458302 0.613236769840443 1.534000000000000
-0.115401953418482 0.618245830204502 1.536000000000000
-0.115477084898573 0.622860608518825 1.537000000000000
-0.115477084898573 0.627072883037442 1.537000000000000
-0.115477084898573 0.631285157556059 1.537000000000000
-0.115401953418482 0.635083965951009 1.536000000000000
-0.115401953418482 0.639293499887636 1.536000000000000
-0.115401953418482 0.643503033824263 1.536000000000000
-0.115477084898573 0.648134255630526 1.537000000000000
-0.115552216378663 0.652770958600768 1.538000000000000
-0.115702479338843 0.657840311768607 1.540000000000000
-0.115627347858753 0.661630898417588 1.539000000000000
-0.115552216378663 0.665416003902589 1.538000000000000
-0.115627347858753 0.670066409782781 1.539000000000000
-0.115777610818933 0.675160428188530 1.541000000000000
-0.115852742299023 0.679824536978673 1.542000000000000
-0.115627347858753 0.682719676830572 1.539000000000000
-0.115477084898573 0.686044726298077 1.537000000000000
-0.115401953418482 0.689807907127157 1.536000000000000
-0.115552216378663 0.694921109606836 1.538000000000000
-0.115552216378663 0.699136124707443 1.538000000000000
-0.115552216378663 0.703351139808050 1.538000000000000
-0.115477084898573 0.707106098891160 1.537000000000000
-0.115401953418482 0.710855576810291 1.536000000000000
-0.115401953418482 0.715065110746918 1.536000000000000
-0.115477084898573 0.719742922447011 1.537000000000000
-0.115552216378663 0.724426215311083 1.538000000000000
-0.115552216378663 0.728641230411690 1.538000000000000
-0.115477084898573 0.732379746002861 1.537000000000000
-0.115477084898573 0.736592020521478 1.537000000000000
-0.115401953418482 0.740322314366679 1.536000000000000
-0.115477084898573 0.745016569558711 1.537000000000000
-0.115401953418482 0.748741382239932 1.536000000000000
-0.115326821938392 0.752460713757173 1.535000000000000
-0.115401953418482 0.757160450113186 1.536000000000000
-0.115552216378663 0.762361351216544 1.538000000000000
-0.115777610818933 0.768071638813218 1.541000000000000
-0.115777610818933 0.772294875659795 1.541000000000000
-0.115702479338843 0.776014207177036 1.540000000000000
-0.115627347858753 0.779728057530297 1.539000000000000
-0.115777610818933 0.784964586199525 1.541000000000000
-0.115777610818933 0.789187823046102 1.541000000000000
-0.115852742299023 0.793925927549974 1.542000000000000
-0.115702479338843 0.797116688499970 1.540000000000000
-0.115777610818933 0.801857533585832 1.541000000000000
-0.115927873779113 0.807126949238940 1.543000000000000
-0.116003005259204 0.811881497234753 1.544000000000000
-0.116078136739294 0.816641526394545 1.545000000000000
-0.116153268219384 0.821407036718317 1.546000000000000
-0.116303531179564 0.826712079937295 1.548000000000000
-0.116303531179564 0.830954500857802 1.548000000000000
-0.116378662659654 0.835736454673514 1.549000000000000
-0.116378662659654 0.839981616176011 1.549000000000000
-0.116604057099925 0.845861819856065 1.552000000000000
-0.116528925619835 0.849567448463356 1.551000000000000
-0.116829451540195 0.856020072022495 1.555000000000000
-0.116829451540195 0.860281677016931 1.555000000000000
-0.117205108940646 0.867323163947096 1.560000000000000
-0.116979714500376 0.869922320944076 1.557000000000000
-0.117205108940646 0.875873779755869 1.560000000000000
-0.117129977460556 0.879584889527140 1.559000000000000
-0.117580766341097 0.887259089140170 1.565000000000000
-0.117731029301277 0.892687458548697 1.567000000000000
-0.118031555221638 0.899271630043356 1.571000000000000
-0.118181818181818 0.904727405271783 1.573000000000000
-0.118482344102179 0.911349944914302 1.577000000000000
-0.118707738542449 0.917413767587685 1.580000000000000
-0.119008264462810 0.924077415960053 1.584000000000000
-0.119308790383171 0.930762988988342 1.588000000000000
-0.119383921863261 0.935703896559473 1.589000000000000
-0.119459053343351 0.940650285294585 1.590000000000000
-0.119684447783621 0.946790844263688 1.593000000000000
-0.119909842223892 0.952947846724730 1.596000000000000
-0.119984973703982 0.957921641279742 1.597000000000000
-0.119984973703982 0.962298350717758 1.597000000000000
-0.120285499624343 0.969096287607636 1.601000000000000
-0.120586025544703 0.975916149153434 1.605000000000000
-0.120811419984974 0.982147147328207 1.608000000000000
-0.120811419984974 0.986554003168113 1.608000000000000
-0.120961682945154 0.992193397389870 1.610000000000000
-0.121187077385425 0.998462763712502 1.613000000000000
-0.121938392186326 1.009100826011412 1.623000000000000
-0.122163786626597 1.015422263391854 1.626000000000000
-0.122689706987228 1.024269070339777 1.633000000000000
-0.122839969947408 1.030004384931184 1.635000000000000
-0.123365890308039 1.038914225264877 1.642000000000000
-0.123591284748310 1.045320620687009 1.645000000000000
-0.123816679188580 1.051743459601081 1.648000000000000
-0.124117205108941 1.058823676435928 1.652000000000000
-0.124417731029301 1.065925817926695 1.656000000000000
-0.124868519909842 1.074342715259012 1.662000000000000
-0.125093914350113 1.080845031050794 1.665000000000000
-0.125394440270473 1.088015687091311 1.669000000000000
-0.125770097670924 1.095862905126533 1.674000000000000
-0.126220886551465 1.104394906902430 1.680000000000000
-0.126746806912096 1.113619914164972 1.687000000000000
-0.127873779113449 1.128186162253416 1.702000000000000
-0.129301277235162 1.145497026468541 1.721000000000000
-0.128174305033809 1.140188464342288 1.706000000000000
-0.131630353117956 1.180535115077038 1.752000000000000
-0.118952257359470 -0.797585755551049 1.643000000000000
-0.119821050474694 -0.798875429586227 1.655000000000000
-0.122210231541561 -0.810178565360140 1.688000000000000
-0.117721467112902 -0.767052262898549 1.626000000000000
-0.115549484324841 -0.748526038269487 1.596000000000000
-0.116635475718872 -0.751145979840279 1.611000000000000
-0.119386653917082 -0.764344666553389 1.649000000000000
-0.117431869407827 -0.747384399511080 1.622000000000000
-0.126771395396489 -0.797227440899349 1.751000000000000
-0.126988593675295 -0.793786355190388 1.754000000000000
-0.125468205723653 -0.765284927347171 1.733000000000000
-0.118807458506933 -0.711166260147005 1.641000000000000
-0.121920633836487 -0.725186189659236 1.684000000000000
-0.123223823509323 -0.728273115438795 1.702000000000000
-0.116273478587528 -0.678392681549854 1.606000000000000
-0.120327846458575 -0.697492871746244 1.662000000000000
-0.122789426951711 -0.707113651935125 1.696000000000000
-0.122499829246636 -0.700808866330854 1.692000000000000
-0.123151424083054 -0.699874843101681 1.701000000000000
-0.124382214329622 -0.702161157183339 1.718000000000000
-0.122644628099174 -0.687709607932340 1.694000000000000
-0.121775834983949 -0.678228334329078 1.682000000000000
-0.121196639573800 -0.670414781603021 1.674000000000000
-0.121341438426337 -0.666622539642518 1.676000000000000
-0.122644628099174 -0.669139424368159 1.694000000000000
-0.122934225804248 -0.666065938402679 1.698000000000000
-0.121703435557681 -0.654790515393849 1.681000000000000
-0.125178608018578 -0.664010754043729 1.729000000000000
-0.128726179905744 -0.677956117801176 1.778000000000000
-0.127133392527833 -0.659942535476834 1.756000000000000
-0.127712587937982 -0.484076802069688 1.764000000000000
-0.128436582200669 -0.481959209177661 1.774000000000000
-0.127857386790520 -0.474945906392682 1.766000000000000
-0.127857386790520 -0.470106038598357 1.766000000000000
-0.125902602281265 -0.458152814851762 1.739000000000000
-0.121848234410218 -0.434174388713187 1.683000000000000
-0.122065432689024 -0.430327696869707 1.686000000000000
-0.123151424083054 -0.429494505133110 1.701000000000000
-0.123006625230517 -0.424333265732311 1.699000000000000
-0.123585820640667 -0.421653130018691 1.707000000000000
-0.121848234410218 -0.411112391267410 1.683000000000000
-0.121051840721262 -0.403843129086893 1.672000000000000
-0.120617444163650 -0.397828121659916 1.666000000000000
-0.121558636705143 -0.396330985568095 1.679000000000000
-0.120762243016187 -0.389163124921208 1.668000000000000
-0.120255447032307 -0.382977839654029 1.661000000000000
-0.120907041868725 -0.380476203526581 1.670000000000000
-0.121631036131412 -0.378150326403315 1.680000000000000
-0.120689843589919 -0.370655612985974 1.667000000000000
-0.118879857933201 -0.360596854908108 1.642000000000000
-0.118300662523052 -0.354361877408286 1.634000000000000
-0.118807458506933 -0.351382656500935 1.641000000000000
-0.119531452769620 -0.348999227155879 1.651000000000000
-0.119314254490813 -0.343848588326217 1.648000000000000
-0.118879857933201 -0.338096676770279 1.642000000000000
-0.117359469981559 -0.329330179836990 1.621000000000000
-0.116707875145140 -0.323083878252386 1.612000000000000
-0.116563076292603 -0.318270692764315 1.610000000000000
-0.116997472850215 -0.315028014229102 1.616000000000000
-0.116997472850215 -0.310599233733276 1.616000000000000
-0.117069872276484 -0.306359915151582 1.617000000000000
-0.117069872276484 -0.301928394073766 1.617000000000000
-0.117142271702753 -0.297680853746102 1.618000000000000
-0.117287070555290 -0.293609072422620 1.620000000000000
-0.117142271702753 -0.288812330426489 1.618000000000000
-0.116925073423946 -0.283850791754137 1.615000000000000
-0.116563076292603 -0.278559659729340 1.610000000000000
-0.116273478587528 -0.273466211364645 1.606000000000000
-0.116201079161259 -0.268897299430507 1.605000000000000
-0.116056280308722 -0.264169071984127 1.603000000000000
-0.116128679734991 -0.259937975148403 1.604000000000000
-0.116056280308722 -0.255382766124214 1.603000000000000
-0.115983880882453 -0.250833038264006 1.602000000000000
-0.115621883751110 -0.245673454174729 1.597000000000000
-0.115477084898573 -0.240994557204168 1.595000000000000
-0.115404685472304 -0.236474975745849 1.594000000000000
-0.115404685472304 -0.232106488053803 1.594000000000000
-0.115042688340960 -0.227023640260246 1.589000000000000
-0.114825490062154 -0.222248461163213 1.586000000000000
-0.114753090635886 -0.217764507270764 1.585000000000000
-0.114680691209617 -0.213286034542295 1.584000000000000
-0.114463492930811 -0.208549223593122 1.581000000000000
-0.114246294652005 -0.203828856135889 1.578000000000000
-0.114173895225736 -0.199377789227320 1.577000000000000
-0.114029096373199 -0.194808515536359 1.575000000000000
-0.113884297520661 -0.190250204173358 1.573000000000000
-0.113956696946930 -0.186057475485494 1.574000000000000
-0.114101495799467 -0.181974731834052 1.576000000000000
-0.113956696946930 -0.177430123381001 1.574000000000000
-0.113667099241855 -0.172676507183065 1.570000000000000
-0.113305102110512 -0.167837571186617 1.565000000000000
-0.113160303257974 -0.163339552627396 1.563000000000000
-0.113087903831706 -0.158954259686587 1.562000000000000
-0.113232702684243 -0.154871516035145 1.564000000000000
-0.113087903831706 -0.150392681549854 1.562000000000000
-0.112798306126631 -0.145737726303558 1.558000000000000
-0.112653507274093 -0.141286297638166 1.556000000000000
-0.112870705552899 -0.137286133203247 1.559000000000000
-0.112943104979168 -0.133098885679363 1.560000000000000
-0.112870705552899 -0.128740998558454 1.559000000000000
-0.112798306126631 -0.124388592601525 1.558000000000000
-0.112798306126631 -0.120118765861118 1.558000000000000
-0.112725906700362 -0.115774581650159 1.557000000000000
-0.112653507274093 -0.111435878603180 1.556000000000000
-0.112581107847825 -0.107102656720181 1.555000000000000
-0.112436308995287 -0.102708780276580 1.553000000000000
-0.112363909569019 -0.098389261303530 1.552000000000000
-0.112291510142750 -0.094075223494461 1.551000000000000
-0.112363909569019 -0.089882494806597 1.552000000000000
-0.112363909569019 -0.085629111558131 1.552000000000000
-0.112291510142750 -0.081323295495031 1.551000000000000
-0.112074311863944 -0.076923576130627 1.548000000000000
-0.112001912437675 -0.072634203559468 1.547000000000000
-0.112074311863944 -0.068438734289614 1.548000000000000
-0.112146711290212 -0.064237783855780 1.549000000000000
-0.112219110716481 -0.060031352257966 1.550000000000000
-0.112219110716481 -0.055783450173479 1.550000000000000
-0.112219110716481 -0.051535548088992 1.550000000000000
-0.112146711290212 -0.047257137845793 1.549000000000000
-0.112074311863944 -0.042984208766574 1.548000000000000
-0.112074311863944 -0.038741787846067 1.548000000000000
-0.112074311863944 -0.034499366925560 1.548000000000000
-0.112146711290212 -0.030276491835806 1.549000000000000
-0.112146711290212 -0.026031330333310 1.549000000000000
-0.112146711290212 -0.021786168830813 1.549000000000000
-0.112074311863944 -0.017529683243534 1.548000000000000
-0.112146711290212 -0.013295845825820 1.549000000000000
-0.112146711290212 -0.009050684323323 1.549000000000000
-0.112146711290212 -0.004805522820826 1.549000000000000
-0.112001912437675 -0.000559637804684 1.547000000000000
-0.111929513011406 0.003677663708665 1.546000000000000
-0.111929513011406 0.007914603465192 1.546000000000000
-0.112001912437675 0.012159403210866 1.547000000000000
-0.112074311863944 0.016409684120520 1.548000000000000
-0.112074311863944 0.020652105041026 1.548000000000000
-0.112219110716481 0.024926689431768 1.550000000000000
-0.112146711290212 0.029155769199147 1.549000000000000
-0.112074311863944 0.033379367802547 1.548000000000000
-0.112001912437675 0.037597485241966 1.547000000000000
-0.112074311863944 0.041864209643560 1.548000000000000
-0.112146711290212 0.046136415209134 1.549000000000000
-0.112219110716481 0.050414101938688 1.550000000000000
-0.112146711290212 0.054626738214127 1.549000000000000
-0.112219110716481 0.058909906107661 1.550000000000000
-0.112146711290212 0.063117061219120 1.549000000000000
-0.112219110716481 0.067405710276634 1.550000000000000
-0.112146711290212 0.071607384224114 1.549000000000000
-0.112219110716481 0.075901514445608 1.550000000000000
-0.112146711290212 0.080097707229107 1.549000000000000
-0.112146711290212 0.084342868731604 1.549000000000000
-0.112146711290212 0.088588030234100 1.549000000000000
-0.112146711290212 0.092833191736597 1.549000000000000
-0.112001912437675 0.096953009981200 1.547000000000000
-0.112001912437675 0.101192690319716 1.547000000000000
-0.111857113585138 0.105296065072379 1.545000000000000
-0.111857113585138 0.109530264246915 1.545000000000000
-0.111784714158869 0.113690829464545 1.544000000000000
-0.111857113585138 0.117998662595989 1.545000000000000
-0.111784714158869 0.122153746649638 1.544000000000000
-0.111712314732600 0.126303349539308 1.543000000000000
-0.111639915306332 0.130447471264998 1.542000000000000
-0.111567515880063 0.134586111826707 1.541000000000000
-0.111567515880063 0.138809348673284 1.541000000000000
-0.111567515880063 0.143032585519861 1.541000000000000
-0.111422717027525 0.147064705140784 1.539000000000000
-0.111350317601257 0.151184161628563 1.538000000000000
-0.111277918174988 0.155298136952363 1.537000000000000
-0.111205518748719 0.159406631112183 1.536000000000000
-0.110988320469913 0.163296602226449 1.533000000000000
-0.110915921043645 0.167388652894329 1.532000000000000
-0.110843521617376 0.171475222398228 1.531000000000000
-0.110843521617376 0.175671053424905 1.531000000000000
-0.110771122191107 0.179749401182835 1.530000000000000
-0.110915921043645 0.184182939328996 1.532000000000000
-0.110915921043645 0.188381510937663 1.532000000000000
-0.110843521617376 0.192454377531613 1.531000000000000
-0.110843521617376 0.196650208558289 1.531000000000000
-0.110843521617376 0.200846039584966 1.531000000000000
-0.110843521617376 0.205041870611643 1.531000000000000
-0.110698722764838 0.208964366952966 1.529000000000000
-0.110698722764838 0.213154716815663 1.529000000000000
-0.110626323338570 0.217202918171703 1.528000000000000
-0.110698722764838 0.221535416541057 1.529000000000000
-0.110553923912301 0.225430507062480 1.527000000000000
-0.110553923912301 0.229615375761197 1.527000000000000
-0.110481524486032 0.233647133625297 1.526000000000000
-0.110553923912301 0.237985113158630 1.527000000000000
-0.110553923912301 0.242169981857347 1.527000000000000
-0.110336725633495 0.245870852814304 1.524000000000000
-0.110336725633495 0.250047499767050 1.524000000000000
-0.110481524486032 0.254557774208931 1.526000000000000
-0.110409125059764 0.258570347999101 1.525000000000000
-0.110481524486032 0.262922030442385 1.526000000000000
-0.110409125059764 0.266929123068575 1.525000000000000
-0.110626323338570 0.271641838820892 1.528000000000000
-0.110553923912301 0.275648931447082 1.527000000000000
-0.110771122191107 0.280383571855319 1.530000000000000
-0.110915921043645 0.284948657936999 1.532000000000000
-0.111060719896182 0.289524706346640 1.534000000000000
-0.110988320469913 0.293537280136810 1.533000000000000
-0.110771122191107 0.297155933634067 1.530000000000000
-0.110771122191107 0.301349024078753 1.530000000000000
-0.110843521617376 0.305741815251887 1.531000000000000
-0.110915921043645 0.310140087589000 1.532000000000000
-0.110988320469913 0.314543841090094 1.533000000000000
-0.111060719896182 0.318953075755167 1.534000000000000
-0.111133119322451 0.323367791584221 1.535000000000000
-0.111060719896182 0.327361181300461 1.534000000000000
-0.111060719896182 0.331565234073108 1.534000000000000
-0.111060719896182 0.335769286845755 1.534000000000000
-0.111133119322451 0.340194965002768 1.535000000000000
-0.111133119322451 0.344401758357405 1.535000000000000
-0.111133119322451 0.348608551712042 1.535000000000000
-0.111133119322451 0.352815345066678 1.535000000000000
-0.111133119322451 0.357022138421315 1.535000000000000
-0.111133119322451 0.361228931775952 1.535000000000000
-0.111205518748719 0.365673794006895 1.536000000000000
-0.111277918174988 0.370124137401819 1.537000000000000
-0.111422717027525 0.374823512001008 1.539000000000000
-0.111350317601257 0.378794977061329 1.538000000000000
-0.111350317601257 0.383009992161935 1.538000000000000
-0.111277918174988 0.386973235476286 1.537000000000000
-0.111350317601257 0.391440022363149 1.538000000000000
-0.111350317601257 0.395655037463756 1.538000000000000
-0.111277918174988 0.399610059032136 1.537000000000000
-0.111277918174988 0.403822333550753 1.537000000000000
-0.111277918174988 0.408034608069370 1.537000000000000
-0.111277918174988 0.412246882587986 1.537000000000000
-0.111133119322451 0.415917245386230 1.535000000000000
-0.111060719896182 0.419850342298691 1.534000000000000
-0.111060719896182 0.424054395071337 1.534000000000000
-0.111133119322451 0.428537625450141 1.535000000000000
-0.111277918174988 0.433308255181070 1.537000000000000
-0.111350317601257 0.437805188469823 1.538000000000000
-0.111277918174988 0.441732804218304 1.537000000000000
-0.111205518748719 0.445654938802804 1.536000000000000
-0.111205518748719 0.449864472739431 1.536000000000000
-0.111205518748719 0.454074006676058 1.536000000000000
-0.111133119322451 0.457985178932598 1.535000000000000
-0.110988320469913 0.461589767763082 1.533000000000000
-0.111060719896182 0.466094922797805 1.534000000000000
-0.110988320469913 0.469992392144396 1.533000000000000
-0.111133119322451 0.474812352351145 1.535000000000000
-0.110915921043645 0.478082951935673 1.532000000000000
-0.110915921043645 0.482281523544340 1.532000000000000
-0.110843521617376 0.486162549398990 1.531000000000000
-0.110915921043645 0.490678666761673 1.532000000000000
-0.110771122191107 0.494231184534348 1.530000000000000
-0.110771122191107 0.498424274979035 1.530000000000000
-0.110915921043645 0.503274381587674 1.532000000000000
-0.110915921043645 0.507472953196341 1.532000000000000
-0.110843521617376 0.511337535559051 1.531000000000000
-0.110771122191107 0.515196636757782 1.530000000000000
-0.110698722764838 0.519050256792532 1.529000000000000
-0.110771122191107 0.523582817647156 1.530000000000000
-0.110771122191107 0.527775908091842 1.530000000000000
-0.110843521617376 0.532316690692435 1.531000000000000
-0.110915921043645 0.536862954457008 1.532000000000000
-0.110771122191107 0.540355179425903 1.530000000000000
-0.110771122191107 0.544548269870590 1.530000000000000
-0.110771122191107 0.548741360315277 1.530000000000000
-0.110915921043645 0.553657240891676 1.532000000000000
-0.110988320469913 0.558219948148189 1.533000000000000
-0.110988320469913 0.562421260338846 1.533000000000000
-0.110988320469913 0.566622572529502 1.533000000000000
-0.110915921043645 0.570451527326343 1.532000000000000
-0.110915921043645 0.574650098935010 1.532000000000000
-0.110988320469913 0.579226509101473 1.533000000000000
-0.111133119322451 0.584188979571702 1.535000000000000
-0.111133119322451 0.588395772926339 1.535000000000000
-0.111205518748719 0.592988626584742 1.536000000000000
-0.111060719896182 0.596420558749856 1.534000000000000
-0.111133119322451 0.601016152990249 1.535000000000000
-0.111060719896182 0.604828664295150 1.534000000000000
-0.111133119322451 0.609429739699523 1.535000000000000
-0.111205518748719 0.614036296267875 1.536000000000000
-0.111277918174988 0.618648334000208 1.537000000000000
-0.111277918174988 0.622860608518825 1.537000000000000
-0.111277918174988 0.627072883037442 1.537000000000000
-0.111205518748719 0.630874432014383 1.536000000000000
-0.111277918174988 0.635497432074675 1.537000000000000
-0.111277918174988 0.639709706593292 1.537000000000000
-0.111277918174988 0.643921981111909 1.537000000000000
-0.111350317601257 0.648555943500162 1.538000000000000
-0.111350317601257 0.652770958600768 1.538000000000000
-0.111422717027525 0.657413142734991 1.539000000000000
-0.111422717027525 0.661630898417588 1.539000000000000
-0.111350317601257 0.665416003902589 1.538000000000000
-0.111277918174988 0.669195628223609 1.537000000000000
-0.111277918174988 0.673407902742226 1.537000000000000
-0.111422717027525 0.678501921147975 1.539000000000000
-0.111422717027525 0.682719676830572 1.539000000000000
-0.111277918174988 0.686044726298077 1.537000000000000
-0.111277918174988 0.690257000816693 1.537000000000000
-0.111350317601257 0.694921109606836 1.538000000000000
-0.111350317601257 0.699136124707443 1.538000000000000
-0.111277918174988 0.702893824372544 1.537000000000000
-0.111277918174988 0.707106098891160 1.537000000000000
-0.111350317601257 0.711781170009263 1.538000000000000
-0.111350317601257 0.715996185109870 1.538000000000000
-0.111350317601257 0.720211200210477 1.538000000000000
-0.111350317601257 0.724426215311083 1.538000000000000
-0.111350317601257 0.728641230411690 1.538000000000000
-0.111277918174988 0.732379746002861 1.537000000000000
-0.111277918174988 0.736592020521478 1.537000000000000
-0.111350317601257 0.741286275713510 1.538000000000000
-0.111350317601257 0.745501290814117 1.538000000000000
-0.111422717027525 0.750203767752120 1.539000000000000
-0.111350317601257 0.753931321015331 1.538000000000000
-0.111422717027525 0.758639279117313 1.539000000000000
-0.111495116453794 0.763352718383276 1.540000000000000
-0.111567515880063 0.768071638813218 1.541000000000000
-0.111567515880063 0.772294875659795 1.541000000000000
-0.111567515880063 0.776518112506372 1.541000000000000
-0.111567515880063 0.780741349352948 1.541000000000000
-0.111639915306332 0.785473972692841 1.542000000000000
-0.111639915306332 0.789699950121408 1.542000000000000
-0.111712314732600 0.794440795207270 1.543000000000000
-0.111567515880063 0.797634296739255 1.541000000000000
-0.111567515880063 0.801857533585832 1.541000000000000
-0.111712314732600 0.807126949238940 1.543000000000000
-0.111857113585138 0.812407327220008 1.545000000000000
-0.112001912437675 0.817698667529036 1.547000000000000
-0.112001912437675 0.821938347867553 1.547000000000000
-0.112074311863944 0.826712079937295 1.548000000000000
-0.112074311863944 0.830954500857802 1.548000000000000
-0.112146711290212 0.835736454673514 1.549000000000000
-0.112074311863944 0.839439342698815 1.548000000000000
-0.112291510142750 0.845316805796879 1.551000000000000
-0.112363909569019 0.850115203104531 1.552000000000000
-0.112581107847825 0.856020072022495 1.555000000000000
-0.112798306126631 0.861941384432398 1.558000000000000
-0.113087903831706 0.868435116721387 1.562000000000000
-0.113087903831706 0.872715905789754 1.562000000000000
-0.113015504405437 0.876435237306994 1.561000000000000
-0.113087903831706 0.881277483926487 1.562000000000000
-0.113377501536780 0.887826027855275 1.566000000000000
-0.113522300389318 0.893257137845793 1.568000000000000
-0.113811898094392 0.899844049922442 1.572000000000000
-0.114101495799467 0.906452886655010 1.576000000000000
-0.114246294652005 0.911927845957367 1.578000000000000
-0.114535892357079 0.918575050837796 1.582000000000000
-0.114753090635886 0.924660798167099 1.585000000000000
-0.115115087767229 0.931935234566412 1.590000000000000
-0.115259886619766 0.937470486672550 1.592000000000000
-0.115404685472304 0.943016701106647 1.594000000000000
-0.115549484324841 0.948573877868704 1.596000000000000
-0.115477084898573 0.952350761607735 1.595000000000000
-0.115621883751110 0.957921641279742 1.597000000000000
-0.115621883751110 0.962298350717758 1.597000000000000
-0.116056280308722 0.970306901333567 1.603000000000000
-0.116273478587528 0.976524196598390 1.606000000000000
-0.116852673997678 0.985811875489879 1.614000000000000
-0.116925073423946 0.990848703430660 1.615000000000000
-0.117142271702753 0.997123550917273 1.618000000000000
-0.117142271702753 1.001557812577079 1.618000000000000
-0.117793866539171 1.011587827431033 1.627000000000000
-0.118155863670514 1.019169209013226 1.632000000000000
-0.118590260228127 1.027405227934204 1.638000000000000
-0.118662659654395 1.032524273334685 1.639000000000000
-0.118807458506933 1.038281512582012 1.641000000000000
-0.119024656785739 1.044685167422154 1.644000000000000
-0.119241855064545 1.051105265754236 1.647000000000000
-0.119531452769620 1.058182742007093 1.651000000000000
-0.119965849327232 1.066569492937520 1.657000000000000
-0.120689843589919 1.077574793223089 1.667000000000000
-0.121341438426337 1.087985748973652 1.676000000000000
-0.121413837852606 1.093230861145673 1.677000000000000
-0.121486237278874 1.098481454481674 1.678000000000000
-0.121703435557681 1.105052284823205 1.681000000000000
-0.122572228672905 1.117580625181564 1.693000000000000
-0.124382214329622 1.138791907609500 1.718000000000000
-0.125251007444847 1.151487423469248 1.730000000000000
-0.124020217198279 1.144866846083434 1.713000000000000
-0.119097056212007 1.103927966542975 1.645000000000000
-0.114463492930811 -0.806591307970160 1.643000000000000
-0.113418482344102 -0.794765751494987 1.628000000000000
-0.114881497165494 -0.795979204463860 1.649000000000000
-0.116414179359333 -0.802019184073930 1.671000000000000
-0.115647838262414 -0.792190218314761 1.660000000000000
-0.115647838262414 -0.787640852211376 1.660000000000000
-0.113836486578786 -0.770826197771359 1.634000000000000
-0.110144115839082 -0.741491019112819 1.581000000000000
-0.111746465405368 -0.747882154974430 1.604000000000000
-0.118643535277645 -0.780040330404565 1.703000000000000
-0.118364865787856 -0.768895677005969 1.699000000000000
-0.116344511986886 -0.732887641619574 1.670000000000000
-0.115299501400178 -0.721769155297819 1.655000000000000
-0.116762516221570 -0.726334340040451 1.676000000000000
-0.116065842497097 -0.717434793332712 1.666000000000000
-0.115647838262414 -0.710301628453818 1.660000000000000
-0.111189126425791 -0.674168567717040 1.596000000000000
-0.119479543747012 -0.710335227989016 1.715000000000000
-0.120245884843931 -0.710161069484716 1.726000000000000
-0.116065842497097 -0.680908316570107 1.666000000000000
-0.117877194180725 -0.686897672149658 1.692000000000000
-0.116971518338911 -0.677018652401024 1.679000000000000
-0.116205177241992 -0.668011861238853 1.668000000000000
-0.114602827675705 -0.654292409136004 1.645000000000000
-0.117389522573595 -0.665584374297726 1.685000000000000
-0.117389522573595 -0.660966493644590 1.685000000000000
-0.116762516221570 -0.652842893396842 1.676000000000000
-0.117459189946042 -0.652117516155731 1.686000000000000
-0.117737859435831 -0.649033067862291 1.690000000000000
-0.120733556451062 -0.660797498396760 1.733000000000000
-0.122684242879585 -0.666647807808466 1.761000000000000
-0.121290895430640 -0.654305213135061 1.741000000000000
-0.124147257700977 -0.664830177096408 1.782000000000000
-0.122544908134690 -0.651428632504399 1.759000000000000
-0.120385219588826 -0.493140586374923 1.728000000000000
-0.117877194180725 -0.478229759431713 1.692000000000000
-0.117737859435831 -0.473032892465044 1.690000000000000
-0.120385219588826 -0.478933409338807 1.728000000000000
-0.121848234410218 -0.479960502732360 1.749000000000000
-0.119270541629670 -0.465115088000088 1.712000000000000
-0.119549211119459 -0.461498966800590 1.716000000000000
-0.120942558568404 -0.462120092302801 1.736000000000000
-0.119688545864354 -0.452620204666663 1.718000000000000
-0.117946861553173 -0.441393958661061 1.693000000000000
-0.117250187828700 -0.434174388713187 1.683000000000000
-0.117110853083806 -0.429051517460248 1.681000000000000
-0.116971518338911 -0.423939608535269 1.679000000000000
-0.118852537394987 -0.426081548757694 1.706000000000000
-0.116762516221570 -0.413995691805112 1.676000000000000
-0.115717505634861 -0.405738373080907 1.661000000000000
-0.115508503517519 -0.400461667479706 1.658000000000000
-0.114881497165494 -0.393768651030733 1.649000000000000
-0.115090499282836 -0.389957586753123 1.652000000000000
-0.114463492930811 -0.383330344271910 1.643000000000000
-0.115160166655283 -0.381133274502173 1.653000000000000
-0.115229834027730 -0.376830922534710 1.654000000000000
-0.115996175124650 -0.374773984203285 1.665000000000000
-0.114951164537941 -0.366875681719770 1.650000000000000
-0.112164469640052 -0.353569388795405 1.610000000000000
-0.113139812854313 -0.352193200067967 1.624000000000000
-0.113906153951233 -0.350097893588682 1.635000000000000
-0.114115156068575 -0.346251201745203 1.638000000000000
-0.114393825558364 -0.342596712397845 1.642000000000000
-0.113418482344102 -0.335214001085271 1.628000000000000
-0.112094802267605 -0.326892201948006 1.609000000000000
-0.111746465405368 -0.321480484315649 1.604000000000000
-0.111607130660474 -0.316689223483499 1.602000000000000
-0.111955467522710 -0.313273526526093 1.607000000000000
-0.111885800150263 -0.308677208772055 1.606000000000000
-0.111955467522710 -0.304465296010261 1.607000000000000
-0.111955467522710 -0.300061180752345 1.607000000000000
-0.112094802267605 -0.296025026994733 1.609000000000000
-0.112234137012499 -0.291977910909161 1.611000000000000
-0.112094802267605 -0.287205834150940 1.609000000000000
-0.111885800150263 -0.282268960716498 1.606000000000000
-0.111607130660474 -0.277175512351803 1.602000000000000
-0.111328461170685 -0.272103988643028 1.598000000000000
-0.111398128543132 -0.267892075881234 1.599000000000000
-0.111398128543132 -0.263509885279238 1.599000000000000
-0.111537463288027 -0.259451806865706 1.601000000000000
-0.111398128543132 -0.254745504075245 1.599000000000000
-0.111398128543132 -0.250363313473249 1.599000000000000
-0.111119459053343 -0.245365785478204 1.595000000000000
-0.110910456936002 -0.240541275905351 1.592000000000000
-0.110562120073765 -0.235436503455874 1.587000000000000
-0.110492452701318 -0.230941587235465 1.586000000000000
-0.110213783211529 -0.226023536118130 1.582000000000000
-0.110074448466635 -0.221407672533339 1.580000000000000
-0.110074448466635 -0.217077552989153 1.580000000000000
-0.110004781094188 -0.212612783170634 1.579000000000000
-0.109795778976846 -0.207889675131411 1.576000000000000
-0.109586776859504 -0.203183010584128 1.573000000000000
-0.109517109487057 -0.198745646585509 1.572000000000000
-0.109517109487057 -0.194437451697242 1.572000000000000
-0.109377774742162 -0.189887362080211 1.570000000000000
-0.109377774742162 -0.185584648355925 1.570000000000000
-0.109308107369715 -0.181166468431236 1.569000000000000
-0.109168772624821 -0.176641044052115 1.567000000000000
-0.108959770507479 -0.172016596964531 1.564000000000000
-0.108681101017690 -0.167301348914456 1.560000000000000
-0.108681101017690 -0.163026041010069 1.560000000000000
-0.108611433645243 -0.158648969815230 1.559000000000000
-0.108681101017690 -0.154475425201296 1.560000000000000
-0.108611433645243 -0.150103835170437 1.559000000000000
-0.108402431527901 -0.145550643214593 1.556000000000000
-0.108332764155454 -0.141195496675674 1.555000000000000
-0.108402431527901 -0.137021952061740 1.556000000000000
-0.108402431527901 -0.132757606485313 1.556000000000000
-0.108332764155454 -0.128410681692364 1.555000000000000
-0.108193429410559 -0.123989399428863 1.553000000000000
-0.108193429410559 -0.119733275598406 1.553000000000000
-0.108054094665665 -0.115328436826845 1.551000000000000
-0.108123762038112 -0.111149411048930 1.552000000000000
-0.108054094665665 -0.106827151493891 1.551000000000000
-0.108054094665665 -0.102576508827415 1.551000000000000
-0.107914759920770 -0.098199075875753 1.549000000000000
-0.107845092548323 -0.093893259812654 1.548000000000000
-0.108054094665665 -0.089824580827985 1.551000000000000
-0.108123762038112 -0.085629111558131 1.552000000000000
-0.108054094665665 -0.081323295495031 1.551000000000000
-0.107845092548323 -0.076923576130627 1.548000000000000
-0.107775425175876 -0.072634203559468 1.547000000000000
-0.107845092548323 -0.068438734289614 1.548000000000000
-0.107775425175876 -0.064154842882435 1.547000000000000
-0.107775425175876 -0.059915162543918 1.547000000000000
-0.107705757803429 -0.055639492882709 1.546000000000000
-0.107705757803429 -0.051402553126182 1.546000000000000
-0.107705757803429 -0.047165613369655 1.546000000000000
-0.107705757803429 -0.042928673613129 1.546000000000000
-0.107705757803429 -0.038691733856602 1.546000000000000
-0.107636090430982 -0.034432507687332 1.545000000000000
-0.107705757803429 -0.030217854343548 1.546000000000000
-0.107775425175876 -0.025997719835784 1.547000000000000
-0.107845092548323 -0.021772104164040 1.548000000000000
-0.107775425175876 -0.017518359158751 1.547000000000000
-0.107705757803429 -0.013270095317442 1.546000000000000
-0.107775425175876 -0.009038998481718 1.547000000000000
-0.107775425175876 -0.004799318143201 1.547000000000000
-0.107705757803429 -0.000559276047862 1.546000000000000
-0.107496755686087 0.003670527233163 1.543000000000000
-0.107566423058534 0.007904364650877 1.544000000000000
-0.107566423058534 0.012135823243424 1.544000000000000
-0.107705757803429 0.016388482978245 1.546000000000000
-0.107705757803429 0.020625422734772 1.546000000000000
-0.107775425175876 0.024878444226416 1.547000000000000
-0.107705757803429 0.029099302247825 1.546000000000000
-0.107705757803429 0.033336242004352 1.546000000000000
-0.107636090430982 0.037548878279791 1.545000000000000
-0.107636090430982 0.041783077454328 1.545000000000000
-0.107705757803429 0.046047061273932 1.546000000000000
-0.107705757803429 0.050284001030459 1.546000000000000
-0.107705757803429 0.054520940786986 1.546000000000000
-0.107775425175876 0.058795886934549 1.547000000000000
-0.107705757803429 0.062994820300039 1.546000000000000
-0.107845092548323 0.067318735166600 1.548000000000000
-0.107845092548323 0.071561156087107 1.548000000000000
-0.107984427293218 0.075901514445608 1.550000000000000
-0.107775425175876 0.079994288627133 1.547000000000000
-0.107775425175876 0.084233968965650 1.547000000000000
-0.107775425175876 0.088473649304166 1.547000000000000
-0.107845092548323 0.092773260689640 1.548000000000000
-0.107705757803429 0.096890338352252 1.546000000000000
-0.107775425175876 0.101192690319716 1.547000000000000
-0.107636090430982 0.105296065072379 1.545000000000000
-0.107566423058534 0.109459370871998 1.544000000000000
-0.107427088313640 0.113543561550731 1.542000000000000
-0.107566423058534 0.117922288057092 1.544000000000000
-0.107496755686087 0.122074631528751 1.543000000000000
-0.107496755686087 0.126303349539308 1.543000000000000
-0.107287753568745 0.130278278695264 1.540000000000000
-0.107218086196298 0.134411438092993 1.539000000000000
-0.107148418823851 0.138539116326743 1.538000000000000
-0.107148418823851 0.142754131427350 1.538000000000000
-0.107078751451404 0.146873587915130 1.537000000000000
-0.107009084078956 0.150987563238929 1.536000000000000
-0.106939416706509 0.155096057398749 1.535000000000000
-0.106869749334062 0.159199070394589 1.534000000000000
-0.106800081961615 0.163296602226449 1.533000000000000
-0.106730414589167 0.167388652894329 1.532000000000000
-0.106730414589167 0.171587224502995 1.532000000000000
-0.106591079844273 0.175556310738148 1.530000000000000
-0.106660747216720 0.179866884451582 1.531000000000000
-0.106730414589167 0.184182939328996 1.532000000000000
-0.106660747216720 0.188258546504936 1.531000000000000
-0.106591079844273 0.192328672516896 1.530000000000000
-0.106591079844273 0.196521762961583 1.530000000000000
-0.106730414589167 0.200977225763663 1.532000000000000
-0.106730414589167 0.205175797372330 1.532000000000000
-0.106591079844273 0.209101034295643 1.530000000000000
-0.106521412471826 0.213154716815663 1.529000000000000
-0.106451745099378 0.217202918171703 1.528000000000000
-0.106521412471826 0.221535416541057 1.529000000000000
-0.106451745099378 0.225578136733117 1.528000000000000
-0.106382077726931 0.229615375761197 1.527000000000000
-0.106451745099378 0.233953355294530 1.528000000000000
-0.106521412471826 0.238296815991844 1.529000000000000
-0.106521412471826 0.242487165854541 1.529000000000000
-0.106451745099378 0.246516183136651 1.528000000000000
-0.106382077726931 0.250539719254781 1.527000000000000
-0.106451745099378 0.254891401698065 1.528000000000000
-0.106382077726931 0.258909456652215 1.527000000000000
-0.106382077726931 0.263094325350932 1.527000000000000
-0.106451745099378 0.267454229540185 1.528000000000000
-0.106591079844273 0.271997390965946 1.530000000000000
-0.106521412471826 0.276009964756116 1.529000000000000
-0.106591079844273 0.280383571855319 1.530000000000000
-0.106800081961615 0.285134655755496 1.533000000000000
-0.106939416706509 0.289713444747126 1.535000000000000
-0.106869749334062 0.293728759119287 1.534000000000000
-0.106800081961615 0.297738592327467 1.533000000000000
-0.106730414589167 0.301742944371667 1.532000000000000
-0.106800081961615 0.306141216708780 1.533000000000000
-0.106800081961615 0.310342528899437 1.533000000000000
-0.106800081961615 0.314543841090094 1.533000000000000
-0.106939416706509 0.319160998229584 1.535000000000000
-0.107078751451404 0.323789117697034 1.537000000000000
-0.107009084078956 0.327787988577254 1.536000000000000
-0.107009084078956 0.331997522513881 1.536000000000000
-0.106939416706509 0.335988171648131 1.535000000000000
-0.107009084078956 0.340416590387135 1.536000000000000
-0.107009084078956 0.344626124323761 1.536000000000000
-0.107078751451404 0.349062764808735 1.537000000000000
-0.107078751451404 0.353275039327351 1.537000000000000
-0.107009084078956 0.357254726133642 1.536000000000000
-0.107009084078956 0.361464260070268 1.536000000000000
-0.107078751451404 0.365911862883202 1.537000000000000
-0.107078751451404 0.370124137401819 1.537000000000000
-0.107148418823851 0.374579961960722 1.538000000000000
-0.107148418823851 0.378794977061329 1.538000000000000
-0.107218086196298 0.383259023366202 1.539000000000000
-0.107148418823851 0.387225007262542 1.538000000000000
-0.107218086196298 0.391694534731395 1.539000000000000
-0.107287753568745 0.396169543364229 1.540000000000000
-0.107287753568745 0.400390039628816 1.540000000000000
-0.107218086196298 0.404347801779186 1.539000000000000
-0.107218086196298 0.408565557461783 1.539000000000000
-0.107148418823851 0.412515097866183 1.538000000000000
-0.107009084078956 0.416188201246417 1.536000000000000
-0.107009084078956 0.420397735183043 1.536000000000000
-0.106939416706509 0.424330832095504 1.535000000000000
-0.107009084078956 0.428816803056297 1.536000000000000
-0.107009084078956 0.433026336992924 1.536000000000000
-0.107078751451404 0.437520529699687 1.537000000000000
-0.107078751451404 0.441732804218304 1.537000000000000
-0.107009084078956 0.445654938802804 1.536000000000000
-0.107078751451404 0.450157353255537 1.537000000000000
-0.107078751451404 0.454369627774154 1.537000000000000
-0.107078751451404 0.458581902292771 1.537000000000000
-0.106939416706509 0.462191972287235 1.535000000000000
-0.107009084078956 0.466702608485938 1.536000000000000
-0.107009084078956 0.470912142422565 1.536000000000000
-0.107078751451404 0.475431000367238 1.537000000000000
-0.106800081961615 0.478395016525709 1.533000000000000
-0.106730414589167 0.482281523544340 1.532000000000000
-0.106591079844273 0.485845003644974 1.530000000000000
-0.106660747216720 0.490358380425667 1.531000000000000
-0.106730414589167 0.494877238370340 1.532000000000000
-0.106800081961615 0.499401577478993 1.533000000000000
-0.106800081961615 0.503602889669650 1.533000000000000
-0.106800081961615 0.507804201860307 1.533000000000000
-0.106730414589167 0.511671524805008 1.532000000000000
-0.106730414589167 0.515870096413674 1.532000000000000
-0.106660747216720 0.519729197612405 1.531000000000000
-0.106660747216720 0.523925028639082 1.531000000000000
-0.106660747216720 0.528120859665759 1.531000000000000
-0.106660747216720 0.532316690692435 1.531000000000000
-0.106730414589167 0.536862954457008 1.532000000000000
-0.106591079844273 0.540355179425903 1.530000000000000
-0.106660747216720 0.544904183772466 1.531000000000000
-0.106591079844273 0.548741360315277 1.530000000000000
-0.106730414589167 0.553657240891676 1.532000000000000
-0.106730414589167 0.557855812500343 1.532000000000000
-0.106800081961615 0.562421260338846 1.533000000000000
-0.106730414589167 0.566252955717676 1.532000000000000
-0.106660747216720 0.570079169932527 1.531000000000000
-0.106730414589167 0.574650098935010 1.532000000000000
-0.106869749334062 0.579604347659269 1.534000000000000
-0.107009084078956 0.584569558711488 1.536000000000000
-0.107009084078956 0.588779092648115 1.536000000000000
-0.107009084078956 0.592988626584742 1.536000000000000
-0.106939416706509 0.596809359635612 1.535000000000000
-0.106869749334062 0.600624611522503 1.534000000000000
-0.106800081961615 0.604434382245414 1.533000000000000
-0.106939416706509 0.609429739699523 1.535000000000000
-0.107078751451404 0.614436059481591 1.537000000000000
-0.107218086196298 0.619453341591620 1.539000000000000
-0.107218086196298 0.623671097274217 1.539000000000000
-0.107078751451404 0.627072883037442 1.537000000000000
-0.107078751451404 0.631285157556059 1.537000000000000
-0.107078751451404 0.635497432074675 1.537000000000000
-0.107218086196298 0.640542120004604 1.539000000000000
-0.107218086196298 0.644759875687201 1.539000000000000
-0.107287753568745 0.649399319239434 1.540000000000000
-0.107357420941193 0.654044243955646 1.541000000000000
-0.107287753568745 0.657840311768607 1.540000000000000
-0.107218086196298 0.661630898417588 1.539000000000000
-0.107078751451404 0.664983353704993 1.537000000000000
-0.107078751451404 0.669195628223609 1.537000000000000
-0.107009084078956 0.672969771380650 1.536000000000000
-0.107148418823851 0.678061049204409 1.538000000000000
-0.107148418823851 0.682276064305016 1.538000000000000
-0.107218086196298 0.686937432513168 1.539000000000000
-0.107218086196298 0.691155188195765 1.539000000000000
-0.107218086196298 0.695372943878362 1.539000000000000
-0.107218086196298 0.699590699560959 1.539000000000000
-0.107148418823851 0.703351139808050 1.538000000000000
-0.107148418823851 0.707566154908656 1.538000000000000
-0.107218086196298 0.712243966608749 1.539000000000000
-0.107357420941193 0.717392796654297 1.541000000000000
-0.107357420941193 0.721616033500874 1.541000000000000
-0.107218086196298 0.724897233656539 1.539000000000000
-0.107218086196298 0.729114989339136 1.539000000000000
-0.107148418823851 0.732856245512297 1.538000000000000
