# This PCD file was generated using the MATLAB® pcwrite function
# from Computer Vision System Toolbox®.
# .PCD v.7 - Point Cloud Data file format
VERSION .7
FIELDS x y z
SIZE 8 8 8
TYPE F F F
COUNT 1 1 1
WIDTH 861
HEIGHT 1
VIEWPOINT 0 0 0 1 0 0 0
POINTS 861
DATA ascii
-0.088402431527901 -0.578345203707459 1.849000000000000
-0.087876511167270 -0.569867344869356 1.838000000000000
-0.087446212690390 -0.562064392714437 1.829000000000000
-0.087494023632266 -0.557356434612454 1.830000000000000
-0.087398401748514 -0.551737518019327 1.828000000000000
-0.087015914213510 -0.544335052591768 1.820000000000000
-0.086729048562257 -0.537569125699534 1.814000000000000
-0.086250939143501 -0.529661669672172 1.804000000000000
-0.086011884434123 -0.523263342523418 1.799000000000000
-0.085772829724746 -0.516892421194565 1.794000000000000
-0.085533775015368 -0.510548905685611 1.789000000000000
-0.085103476538488 -0.503102229189391 1.780000000000000
-0.084768799945359 -0.496264685408593 1.773000000000000
-0.084577556177857 -0.490296991389091 1.769000000000000
-0.084386312410354 -0.484351222025509 1.765000000000000
-0.084529745235981 -0.480329132934670 1.768000000000000
-0.084434123352230 -0.474945906392682 1.766000000000000
-0.084386312410354 -0.469839840388505 1.765000000000000
-0.084051635817226 -0.463158509781137 1.758000000000000
-0.083956013933475 -0.457819132550988 1.756000000000000
-0.084003824875350 -0.453264647040446 1.757000000000000
-0.083908202991599 -0.447938972720247 1.755000000000000
-0.083764770165972 -0.442371765428106 1.752000000000000
-0.083430093572843 -0.435821982756258 1.745000000000000
-0.083382282630968 -0.430792653047801 1.744000000000000
-0.083334471689092 -0.425768804503324 1.743000000000000
-0.083382282630968 -0.421233503066711 1.744000000000000
-0.083238849805341 -0.415737550906310 1.741000000000000
-0.082951984154088 -0.409549886813964 1.735000000000000
-0.082665118502835 -0.403395109705497 1.729000000000000
-0.082521685677208 -0.397964931512856 1.726000000000000
-0.082473874735332 -0.393006856936139 1.725000000000000
-0.082473874735332 -0.388279353003404 1.725000000000000
-0.082426063793457 -0.383329500172657 1.724000000000000
-0.082426063793457 -0.378604736821911 1.724000000000000
-0.082330441909706 -0.373446238003102 1.722000000000000
-0.082139198142203 -0.367870447208169 1.718000000000000
-0.081995765316577 -0.362527967639208 1.715000000000000
-0.081900143432826 -0.357410577550249 1.713000000000000
-0.081804521549075 -0.352304149789249 1.711000000000000
-0.081661088723448 -0.347005519532128 1.708000000000000
-0.081469844955946 -0.341522908524854 1.704000000000000
-0.081230790246568 -0.335864538513399 1.699000000000000
-0.081039546479066 -0.330428517399955 1.695000000000000
-0.080800491769688 -0.324822218446309 1.690000000000000
-0.080561437060310 -0.319243325312563 1.685000000000000
-0.080274571409057 -0.313505116666575 1.679000000000000
-0.079844272932177 -0.307247852754011 1.670000000000000
-0.079748651048426 -0.302308600494401 1.668000000000000
-0.079509596339048 -0.296844811804235 1.663000000000000
-0.079366163513421 -0.291759946942333 1.660000000000000
-0.079366163513421 -0.287210580838947 1.660000000000000
-0.079461785397172 -0.283001770415966 1.662000000000000
-0.079653029164675 -0.279117072181448 1.666000000000000
-0.079653029164675 -0.274551262586123 1.666000000000000
-0.079700840106550 -0.270147509085029 1.667000000000000
-0.079509596339048 -0.264941696858745 1.663000000000000
-0.079509596339048 -0.260384109009389 1.663000000000000
-0.079413974455297 -0.255518852463509 1.661000000000000
-0.079509596339048 -0.251268933310678 1.663000000000000
-0.079461785397172 -0.246562992277040 1.662000000000000
-0.079413974455297 -0.241862532407382 1.661000000000000
-0.079366163513421 -0.237167553701704 1.660000000000000
-0.079318352571546 -0.232478056160006 1.659000000000000
-0.079509596339048 -0.228480994063899 1.663000000000000
-0.079366163513421 -0.223519455391547 1.660000000000000
-0.079270541629670 -0.218706269903477 1.658000000000000
-0.079127108804043 -0.213774877633014 1.655000000000000
-0.079127108804043 -0.209239214439578 1.655000000000000
-0.078983675978417 -0.204332487407026 1.652000000000000
-0.078840243152790 -0.199442203866413 1.649000000000000
-0.078888054094666 -0.195041190947310 1.650000000000000
-0.078935865036541 -0.190634696864226 1.651000000000000
-0.078935865036541 -0.186109995998750 1.651000000000000
-0.078744621269039 -0.181145354987585 1.647000000000000
-0.078648999385288 -0.176417127541205 1.645000000000000
-0.078696810327163 -0.172013374040111 1.646000000000000
-0.078696810327163 -0.167502376084585 1.646000000000000
-0.078744621269039 -0.163090400837522 1.647000000000000
-0.078648999385288 -0.158384098047061 1.645000000000000
-0.078601188443412 -0.153782299129043 1.644000000000000
-0.078505566559661 -0.149095180412512 1.642000000000000
-0.078505566559661 -0.144595144784947 1.642000000000000
-0.078505566559661 -0.140095109157381 1.642000000000000
-0.078553377501537 -0.135677652746337 1.643000000000000
-0.078553377501537 -0.131174876536781 1.643000000000000
-0.078505566559661 -0.126595002274683 1.642000000000000
-0.078505566559661 -0.122094966647117 1.642000000000000
-0.078553377501537 -0.117666547908114 1.643000000000000
-0.078601188443412 -0.113232648005130 1.644000000000000
-0.078553377501537 -0.108660995489002 1.643000000000000
-0.078505566559661 -0.104094824136854 1.642000000000000
-0.078457755617786 -0.099534133948685 1.641000000000000
-0.078505566559661 -0.095094752881722 1.642000000000000
-0.078457755617786 -0.090539543857534 1.641000000000000
-0.078457755617786 -0.086042248811958 1.641000000000000
-0.078362133734035 -0.081445569301097 1.639000000000000
-0.078266511850283 -0.076859852118196 1.637000000000000
-0.078170889966532 -0.072285097263255 1.635000000000000
-0.078266511850283 -0.067887186682964 1.637000000000000
-0.078409944675910 -0.063517043679396 1.640000000000000
-0.078505566559661 -0.059094467861195 1.642000000000000
-0.078505566559661 -0.054594432233629 1.642000000000000
-0.078362133734035 -0.050002872129926 1.639000000000000
-0.078170889966532 -0.045399987941439 1.635000000000000
-0.078075268082781 -0.040869082398338 1.633000000000000
-0.078027457140906 -0.036371425595940 1.632000000000000
-0.078027457140906 -0.031898795788274 1.632000000000000
-0.078027457140906 -0.027426165980608 1.632000000000000
-0.077931835257155 -0.022925406839396 1.630000000000000
-0.077931835257155 -0.018458258195710 1.630000000000000
-0.077979646199030 -0.013999693054817 1.631000000000000
-0.077884024315279 -0.009518117987536 1.629000000000000
-0.077836213373403 -0.005050607587027 1.628000000000000
-0.077740591489652 -0.000588216593676 1.626000000000000
-0.077740591489652 0.003867969722050 1.626000000000000
-0.077740591489652 0.008324156037776 1.626000000000000
-0.077644969605901 0.012764622375208 1.624000000000000
-0.077501536780275 0.017183525813542 1.621000000000000
-0.077453725838399 0.021612668066191 1.620000000000000
-0.077453725838399 0.026052410889977 1.620000000000000
-0.077453725838399 0.030492153713763 1.620000000000000
-0.077358103954648 0.034888770739354 1.618000000000000
-0.077310293012772 0.039298728918073 1.617000000000000
-0.077262482070897 0.043703205932812 1.616000000000000
-0.077262482070897 0.048131986428638 1.616000000000000
-0.077166860187146 0.052495716470350 1.614000000000000
-0.077023427361519 0.056813218375054 1.611000000000000
-0.076975616419643 0.061190289569893 1.610000000000000
-0.077071238303395 0.065684120519834 1.612000000000000
-0.077119049245270 0.070145426242717 1.613000000000000
-0.077071238303395 0.074519756855566 1.612000000000000
-0.076975616419643 0.078839637585438 1.610000000000000
-0.076927805477768 0.083200265288337 1.609000000000000
-0.076879994535892 0.087555411827256 1.608000000000000
-0.076832183594017 0.091905077202195 1.607000000000000
-0.076640939826515 0.096069468272282 1.603000000000000
-0.076545317942763 0.100337277944344 1.601000000000000
-0.076449696059012 0.104594125288446 1.599000000000000
-0.076497507000888 0.109044468683370 1.600000000000000
-0.076449696059012 0.113358506492439 1.599000000000000
-0.076306263233386 0.117519795223714 1.596000000000000
-0.076258452291510 0.121817389540843 1.595000000000000
-0.076306263233386 0.126267732935766 1.596000000000000
-0.076354074175261 0.130723557494670 1.597000000000000
-0.076258452291510 0.134931074362952 1.595000000000000
-0.076162830407759 0.139127628903274 1.593000000000000
-0.076258452291510 0.143673530911024 1.595000000000000
-0.076210641349635 0.147951941154224 1.594000000000000
-0.076067208524008 0.152033753007789 1.591000000000000
-0.075828153814630 0.155902522979780 1.586000000000000
-0.075780342872755 0.160148046239099 1.585000000000000
-0.075780342872755 0.164491868693236 1.585000000000000
-0.075780342872755 0.168835691147372 1.585000000000000
-0.075732531930879 0.173070252078731 1.584000000000000
-0.075732531930879 0.177411333950878 1.584000000000000
-0.075684720989003 0.181637673136267 1.583000000000000
-0.075684720989003 0.185976014426424 1.583000000000000
-0.075589099105252 0.190073908015106 1.581000000000000
-0.075541288163377 0.194283803708556 1.580000000000000
-0.075445666279626 0.198362513223308 1.578000000000000
-0.075397855337750 0.202558706006808 1.577000000000000
-0.075493477221501 0.207142976162418 1.579000000000000
-0.075445666279626 0.211336428363927 1.578000000000000
-0.075445666279626 0.215661066744134 1.578000000000000
-0.075350044395875 0.219706889275006 1.576000000000000
-0.075302233453999 0.223883897984576 1.575000000000000
-0.075158800628372 0.227765647352872 1.572000000000000
-0.075110989686497 0.231926212570501 1.571000000000000
-0.075063178744621 0.236081296624151 1.570000000000000
-0.075015367802746 0.240230899513821 1.569000000000000
-0.075015367802746 0.244530872656117 1.569000000000000
-0.075063178744621 0.248989437797011 1.570000000000000
-0.075110989686497 0.253453484101884 1.571000000000000
-0.075110989686497 0.257758938408160 1.571000000000000
-0.075063178744621 0.261897578969870 1.570000000000000
-0.075015367802746 0.266030738367600 1.569000000000000
-0.074967556860870 0.270158416601349 1.568000000000000
-0.075015367802746 0.274630684652193 1.569000000000000
-0.075015367802746 0.278930657794489 1.569000000000000
-0.075063178744621 0.283411147591302 1.570000000000000
-0.075015367802746 0.287530604079082 1.569000000000000
-0.074967556860870 0.291644579402882 1.568000000000000
-0.075015367802746 0.296130550363675 1.569000000000000
-0.075063178744621 0.300622002488448 1.570000000000000
-0.075015367802746 0.304730496648268 1.569000000000000
-0.074967556860870 0.308833509644108 1.568000000000000
-0.075015367802746 0.313330442932861 1.569000000000000
-0.075063178744621 0.317832857385594 1.570000000000000
-0.075063178744621 0.322135571109881 1.570000000000000
-0.075015367802746 0.326230362359751 1.569000000000000
-0.075063178744621 0.330740998558454 1.570000000000000
-0.075110989686497 0.335257115921137 1.571000000000000
-0.075110989686497 0.339562570227413 1.571000000000000
-0.075158800628372 0.344086909336067 1.572000000000000
-0.075206611570248 0.348616729608700 1.573000000000000
-0.075110989686497 0.352478933146243 1.571000000000000
-0.075063178744621 0.356557280904173 1.570000000000000
-0.074967556860870 0.360400300367786 1.568000000000000
-0.074967556860870 0.364697532928093 1.568000000000000
-0.075015367802746 0.369230093782716 1.569000000000000
-0.075063178744621 0.373768135801319 1.570000000000000
-0.075063178744621 0.378070849525605 1.570000000000000
-0.075063178744621 0.382373563249892 1.570000000000000
-0.075206611570248 0.387415148841008 1.573000000000000
-0.075158800628372 0.391477053106998 1.572000000000000
-0.075110989686497 0.395533476209008 1.571000000000000
-0.075110989686497 0.399838930515284 1.571000000000000
-0.075158800628372 0.404401637771797 1.572000000000000
-0.075206611570248 0.408969826192290 1.573000000000000
-0.075110989686497 0.412755293434114 1.571000000000000
-0.075206611570248 0.417591697132803 1.573000000000000
-0.075110989686497 0.421366202046667 1.571000000000000
-0.075110989686497 0.425671656352943 1.571000000000000
-0.075063178744621 0.429703414217043 1.570000000000000
-0.075158800628372 0.434559001989662 1.572000000000000
-0.075110989686497 0.438588019271773 1.571000000000000
-0.075158800628372 0.443175391766195 1.572000000000000
-0.075158800628372 0.447483586654462 1.572000000000000
-0.075206611570248 0.452079180894855 1.573000000000000
-0.075158800628372 0.456099976430995 1.572000000000000
-0.075254422512123 0.460993932351474 1.574000000000000
-0.075254422512123 0.465307608403721 1.574000000000000
-0.075302233453999 0.469919646136053 1.575000000000000
-0.075302233453999 0.474236062770290 1.575000000000000
-0.075350044395875 0.478856322248593 1.576000000000000
-0.075302233453999 0.482868896038763 1.575000000000000
-0.075254422512123 0.486875988664953 1.574000000000000
-0.075254422512123 0.491189664717199 1.574000000000000
-0.075206611570248 0.495188535597419 1.573000000000000
-0.075158800628372 0.499181925313660 1.572000000000000
-0.075206611570248 0.503810406537932 1.573000000000000
-0.075206611570248 0.508121342008189 1.573000000000000
-0.075206611570248 0.512432277478445 1.573000000000000
-0.075206611570248 0.516743212948702 1.573000000000000
-0.075302233453999 0.521716645746891 1.575000000000000
-0.075302233453999 0.526033062381127 1.575000000000000
-0.075254422512123 0.530012749187417 1.574000000000000
-0.075206611570248 0.533986954829728 1.573000000000000
-0.075110989686497 0.537613468316132 1.571000000000000
-0.075110989686497 0.541918922622408 1.571000000000000
-0.075110989686497 0.546224376928684 1.571000000000000
-0.075206611570248 0.551230696710753 1.573000000000000
-0.075206611570248 0.555541632181010 1.573000000000000
-0.075254422512123 0.560208481553143 1.574000000000000
-0.075206611570248 0.564163503121523 1.573000000000000
-0.075206611570248 0.568474438591779 1.573000000000000
-0.075206611570248 0.572785374062036 1.573000000000000
-0.075254422512123 0.577463185762128 1.574000000000000
-0.075302233453999 0.582146478626201 1.575000000000000
-0.075302233453999 0.586462895260437 1.575000000000000
-0.075302233453999 0.590779311894674 1.575000000000000
-0.075302233453999 0.595095728528910 1.575000000000000
-0.075350044395875 0.599792724302933 1.576000000000000
-0.075254422512123 0.603345242075607 1.574000000000000
-0.075206611570248 0.607272857824087 1.573000000000000
-0.075110989686497 0.610806191522832 1.571000000000000
-0.075158800628372 0.615503187296854 1.572000000000000
-0.075158800628372 0.619811382185121 1.572000000000000
-0.075254422512123 0.624913622336839 1.574000000000000
-0.075254422512123 0.629227298389086 1.574000000000000
-0.075254422512123 0.633540974441332 1.574000000000000
-0.075302233453999 0.638259894871275 1.575000000000000
-0.075350044395875 0.642984296465197 1.576000000000000
-0.075302233453999 0.646892728139748 1.575000000000000
-0.075254422512123 0.650795678650318 1.574000000000000
-0.075302233453999 0.655525561408221 1.575000000000000
-0.075350044395875 0.660260925330103 1.576000000000000
-0.075397855337750 0.665001770415965 1.577000000000000
-0.075397855337750 0.669323668214182 1.577000000000000
-0.075445666279626 0.674072735046014 1.578000000000000
-0.075397855337750 0.677967463810615 1.577000000000000
-0.075493477221501 0.683154662004023 1.579000000000000
-0.075445666279626 0.687046650186634 1.578000000000000
-0.075541288163377 0.692247551289992 1.580000000000000
-0.075636910047128 0.697459414721310 1.582000000000000
-0.075636910047128 0.701795015429477 1.582000000000000
-0.075589099105252 0.705684263030097 1.581000000000000
-0.075589099105252 0.710017123156273 1.581000000000000
-0.075636910047128 0.714801817553976 1.582000000000000
-0.075636910047128 0.719137418262142 1.582000000000000
-0.075636910047128 0.723473018970309 1.582000000000000
-0.075589099105252 0.727348563660979 1.581000000000000
-0.075636910047128 0.732144220386641 1.582000000000000
-0.075684720989003 0.736945358276283 1.583000000000000
-0.075636910047128 0.740815421802974 1.582000000000000
-0.075684720989003 0.745622040856596 1.583000000000000
-0.075780342872755 0.750907900001644 1.585000000000000
-0.075828153814630 0.755728221965217 1.586000000000000
-0.075875964756506 0.760554025092769 1.587000000000000
-0.075828153814630 0.764421348037469 1.586000000000000
-0.075780342872755 0.768283189818190 1.585000000000000
-0.075732531930879 0.772139550434930 1.584000000000000
-0.075780342872755 0.776970834726462 1.585000000000000
-0.075780342872755 0.781314657180599 1.585000000000000
-0.075732531930879 0.785162796051369 1.584000000000000
-0.075732531930879 0.789503877923516 1.584000000000000
-0.075780342872755 0.794346124543008 1.585000000000000
-0.075732531930879 0.798186041667809 1.584000000000000
-0.075828153814630 0.803540415362606 1.586000000000000
-0.075875964756506 0.808396364892048 1.587000000000000
-0.075971586640257 0.813769922660776 1.589000000000000
-0.075828153814630 0.816580104470985 1.586000000000000
-0.075923775698381 0.821961883985683 1.588000000000000
-0.075971586640257 0.826834277007065 1.589000000000000
-0.076115019465883 0.832758329998958 1.592000000000000
-0.076115019465883 0.837121336527025 1.592000000000000
-0.076115019465883 0.841484343055091 1.592000000000000
-0.076067208524008 0.845316038433922 1.591000000000000
-0.076115019465883 0.850210356111224 1.592000000000000
-0.076210641349635 0.855646947265721 1.594000000000000
-0.076306263233386 0.861094500748179 1.596000000000000
-0.076210641349635 0.864383922649814 1.594000000000000
-0.076115019465883 0.867662382223489 1.592000000000000
-0.076162830407759 0.872573143392731 1.593000000000000
-0.076210641349635 0.877489385725953 1.594000000000000
-0.076306263233386 0.882964345028310 1.596000000000000
-0.076401885117137 0.888450266658628 1.598000000000000
-0.076497507000888 0.893947150616905 1.600000000000000
-0.076497507000888 0.898332081800891 1.600000000000000
-0.076497507000888 0.902717012984877 1.600000000000000
-0.076497507000888 0.907101944168864 1.600000000000000
-0.076545317942763 0.912056554649945 1.601000000000000
-0.076545317942763 0.916444226415922 1.601000000000000
-0.076640939826515 0.921982219104049 1.603000000000000
-0.076640939826515 0.926375372034005 1.603000000000000
-0.076832183594017 0.933091091464183 1.607000000000000
-0.076832183594017 0.937495206722099 1.607000000000000
-0.076879994535892 0.942485444769051 1.608000000000000
-0.076832183594017 0.946303437237932 1.607000000000000
-0.076879994535892 0.951299156448863 1.608000000000000
-0.076832183594017 0.955111667753764 1.607000000000000
-0.076832183594017 0.959515783011680 1.607000000000000
-0.076975616419643 0.965719375366553 1.610000000000000
-0.077071238303395 0.971336844932390 1.612000000000000
-0.077166860187146 0.976965276826187 1.614000000000000
-0.077310293012772 0.983212718492899 1.617000000000000
-0.077644969605901 0.991919755759333 1.624000000000000
-0.077884024315279 0.999438103955756 1.629000000000000
-0.077884024315279 1.003902512017452 1.629000000000000
-0.077931835257155 1.008985929852063 1.630000000000000
-0.077884024315279 1.012831328140844 1.629000000000000
-0.078027457140906 1.019169209013226 1.632000000000000
-0.077979646199030 1.023014607302007 1.631000000000000
-0.078075268082781 1.028744440729433 1.633000000000000
-0.078218700908408 1.035117949167685 1.636000000000000
-0.078314322792159 1.040872447833022 1.638000000000000
-0.078362133734035 1.045999714979473 1.639000000000000
-0.078409944675910 1.051132463289904 1.640000000000000
-0.078362133734035 1.054983342742665 1.639000000000000
-0.078457755617786 1.060767987809891 1.641000000000000
-0.078505566559661 1.065914439030273 1.642000000000000
-0.078744621269039 1.073673958441815 1.647000000000000
-0.078792432210915 1.078842334318116 1.648000000000000
-0.078935865036541 1.085330947199947 1.651000000000000
-0.078888054094666 1.089195529562658 1.650000000000000
-0.078840243152790 1.093054630761388 1.649000000000000
-0.078792432210915 1.096908250796139 1.648000000000000
-0.078935865036541 1.103429750661851 1.651000000000000
-0.079079297862168 1.109967694019502 1.654000000000000
-0.079174919745919 1.115848259456378 1.656000000000000
-0.079031486920292 1.118356977247688 1.653000000000000
-0.078840243152790 1.120169948970363 1.649000000000000
-0.078935865036541 1.126053254989229 1.651000000000000
-0.079174919745919 1.134001874558081 1.656000000000000
-0.079174919745919 1.138540278333507 1.656000000000000
-0.078935865036541 1.139627357585657 1.651000000000000
-0.078840243152790 1.142766047477842 1.649000000000000
-0.079174919745919 1.152155489659784 1.656000000000000
-0.079318352571546 1.158789353387085 1.659000000000000
-0.079270541629670 1.162634751675866 1.658000000000000
-0.079174919745919 1.165770700986061 1.656000000000000
-0.079222730687795 1.171015813158082 1.657000000000000
-0.079461785397172 1.179104202408424 1.662000000000000
-0.079605218222799 1.185795618357515 1.665000000000000
-0.079939894815928 1.195363198368806 1.672000000000000
-0.079796461990301 1.197792439282406 1.669000000000000
-0.080083327641555 1.206688938462972 1.675000000000000
-0.080131138583430 1.212002565184742 1.676000000000000
-0.080896113653439 1.228210060128369 1.692000000000000
-0.083143227921590 1.267092878323641 1.739000000000000
-0.092862509391435 -0.937914636352176 2.060000000000000
-0.091690458302029 -0.920502535038341 2.034000000000000
-0.090879038317055 -0.906831481613435 2.016000000000000
-0.090608564988730 -0.898624008594465 2.010000000000000
-0.090383170548460 -0.890893758598576 2.005000000000000
-0.090338091660406 -0.884957296251432 2.004000000000000
-0.090428249436514 -0.880342879693932 2.006000000000000
-0.090247933884298 -0.873100815049084 2.002000000000000
-0.090383170548460 -0.868914291038845 2.005000000000000
-0.090428249436514 -0.863850057278164 2.006000000000000
-0.090969196093163 -0.863487160373377 2.018000000000000
-0.091239669421488 -0.860507577709202 2.024000000000000
-0.091374906085650 -0.856227873911304 2.027000000000000
-0.091239669421488 -0.849413701813717 2.024000000000000
-0.091104432757325 -0.842615973208070 2.021000000000000
-0.091284748309542 -0.838734015555543 2.025000000000000
-0.091194590533434 -0.832361438915168 2.023000000000000
-0.091104432757325 -0.825999824602753 2.021000000000000
-0.091059353869271 -0.820055140509639 2.020000000000000
-0.091194590533434 -0.815728846817910 2.023000000000000
-0.091239669421488 -0.810585136179519 2.024000000000000
-0.091149511645379 -0.804242705941034 2.022000000000000
-0.091329827197596 -0.800281271410797 2.026000000000000
-0.091510142749812 -0.796297912224640 2.030000000000000
-0.091690458302029 -0.792292628382563 2.034000000000000
-0.091960931630353 -0.789038987519390 2.040000000000000
-0.092006010518407 -0.783832243495229 2.041000000000000
-0.091915852742299 -0.777476110346793 2.039000000000000
-0.092006010518407 -0.772645187812084 2.041000000000000
-0.092276483846732 -0.769306588907220 2.047000000000000
-0.092231404958678 -0.763323536666247 2.046000000000000
-0.091870773854245 -0.754753583310952 2.038000000000000
-0.091555221637866 -0.746595079010979 2.031000000000000
-0.091555221637866 -0.741028956989306 2.031000000000000
-0.091419984973704 -0.734376479229129 2.028000000000000
-0.091239669421488 -0.727381066963380 2.024000000000000
-0.090743801652893 -0.717911117444901 2.013000000000000
-0.090383170548460 -0.709563151230795 2.005000000000000
-0.089571750563486 -0.697747471813114 1.987000000000000
-0.088985725018783 -0.687772531694831 1.974000000000000
-0.088219383921863 -0.676486146358041 1.957000000000000
-0.087858752817431 -0.668379351359055 1.949000000000000
-0.087092411720511 -0.657254660359674 1.932000000000000
-0.086596543951916 -0.648247869197503 1.921000000000000
-0.086235912847483 -0.640305509117916 1.913000000000000
-0.086235912847483 -0.635062775771063 1.913000000000000
-0.085965439519159 -0.627844652850479 1.907000000000000
-0.085649887302780 -0.620332925900144 1.900000000000000
-0.085018782870023 -0.610593314076177 1.886000000000000
-0.084748309541698 -0.603498517345143 1.880000000000000
-0.084342599549211 -0.595481799795004 1.871000000000000
-0.084252441773103 -0.589723113520387 1.869000000000000
-0.083666416228400 -0.580534720433231 1.856000000000000
-0.083035311795642 -0.571107534956123 1.842000000000000
-0.082629601803156 -0.563293620473244 1.833000000000000
-0.082674680691210 -0.558574700043301 1.834000000000000
-0.082584522915101 -0.552944821122214 1.832000000000000
-0.082223891810669 -0.545531393366695 1.824000000000000
-0.081863260706236 -0.538161814923017 1.816000000000000
-0.081502629601803 -0.530836085791179 1.808000000000000
-0.081277235161533 -0.524426796314465 1.803000000000000
-0.081096919609316 -0.518333035523424 1.799000000000000
-0.080961682945154 -0.512546581672084 1.796000000000000
-0.080555972952667 -0.505080721101933 1.787000000000000
-0.080240420736289 -0.498223993247206 1.780000000000000
-0.080105184072126 -0.492514275691586 1.777000000000000
-0.079924868519910 -0.486546581672084 1.773000000000000
-0.079969947407964 -0.481959209177661 1.774000000000000
-0.079744552967693 -0.475752722768207 1.769000000000000
-0.079699474079639 -0.470638435018060 1.768000000000000
-0.079383921863261 -0.463948882664723 1.761000000000000
-0.079293764087153 -0.458601283688604 1.759000000000000
-0.079158527422990 -0.453006670576564 1.756000000000000
-0.079023290758828 -0.447428500956463 1.753000000000000
-0.078888054094666 -0.441866774828303 1.750000000000000
-0.078662659654395 -0.435821982756258 1.745000000000000
-0.078572501878287 -0.430545638911879 1.743000000000000
-0.078572501878287 -0.425768804503324 1.743000000000000
-0.078617580766341 -0.421233503066711 1.744000000000000
-0.078527422990233 -0.415976343296262 1.742000000000000
-0.078347107438017 -0.410258042237850 1.738000000000000
-0.078076634109692 -0.404095043383413 1.732000000000000
-0.077941397445530 -0.398656643444802 1.729000000000000
-0.077941397445530 -0.393918177184107 1.729000000000000
-0.077851239669421 -0.388729531963408 1.727000000000000
-0.077761081893313 -0.383551849070669 1.725000000000000
-0.077535687453043 -0.377726303557824 1.720000000000000
-0.077580766341097 -0.373229370269070 1.721000000000000
-0.077400450788881 -0.367656320056127 1.717000000000000
-0.077310293012772 -0.362527967639208 1.715000000000000
-0.077175056348610 -0.357201931562187 1.712000000000000
-0.077175056348610 -0.352510055195321 1.712000000000000
-0.077129977460556 -0.347615014004374 1.711000000000000
-0.076904583020286 -0.341923757009038 1.706000000000000
-0.076679188580015 -0.336259905833603 1.701000000000000
-0.076498873027799 -0.330818403556179 1.697000000000000
-0.076408715251690 -0.325783230926920 1.695000000000000
-0.076138241923366 -0.320001172969092 1.689000000000000
-0.075822689706987 -0.314065280663002 1.682000000000000
-0.075462058602554 -0.307983775754619 1.674000000000000
-0.075236664162284 -0.302489840662563 1.669000000000000
-0.074921111945905 -0.296666312218063 1.662000000000000
-0.074830954169797 -0.291759946942333 1.660000000000000
-0.074921111945905 -0.287556617683331 1.662000000000000
-0.075011269722014 -0.283342326096370 1.664000000000000
-0.075146506386176 -0.279284609439661 1.667000000000000
-0.075146506386176 -0.274716059262345 1.667000000000000
-0.075191585274230 -0.270309565179261 1.668000000000000
-0.075056348610068 -0.265260327883229 1.665000000000000
-0.075056348610068 -0.260697258869894 1.665000000000000
-0.075011269722014 -0.255980355508296 1.664000000000000
-0.075101427498122 -0.251722214609494 1.666000000000000
-0.074966190833959 -0.246711345461322 1.663000000000000
-0.074966190833959 -0.242153757611966 1.663000000000000
-0.074921111945905 -0.237453297742309 1.662000000000000
-0.075011269722014 -0.233178713351567 1.664000000000000
-0.075146506386176 -0.229030557489188 1.667000000000000
-0.075011269722014 -0.224058056488876 1.664000000000000
-0.074876033057851 -0.219101998980504 1.661000000000000
-0.074740796393689 -0.214162384964071 1.658000000000000
-0.074785875281743 -0.209744928553028 1.659000000000000
-0.074650638617581 -0.204827239192515 1.656000000000000
-0.074560480841473 -0.200046940688325 1.654000000000000
-0.074605559729527 -0.195632224859271 1.655000000000000
-0.074515401953418 -0.190865629265031 1.653000000000000
-0.074470323065364 -0.186222721617163 1.652000000000000
-0.074335086401202 -0.181365325060430 1.649000000000000
-0.074335086401202 -0.176846105358934 1.649000000000000
-0.074290007513148 -0.172222381784996 1.648000000000000
-0.074244928625094 -0.167604139375038 1.647000000000000
-0.074244928625094 -0.163090400837522 1.647000000000000
-0.074154770848986 -0.158384098047061 1.645000000000000
-0.074199849737040 -0.153969382218008 1.646000000000000
-0.074064613072878 -0.149185981375005 1.643000000000000
-0.074109691960932 -0.144771265545951 1.644000000000000
-0.074064613072878 -0.140180428955893 1.643000000000000
-0.074154770848986 -0.135842811179382 1.645000000000000
-0.074109691960932 -0.131254715171314 1.644000000000000
-0.074154770848986 -0.126826296432310 1.645000000000000
-0.074199849737040 -0.122392396529327 1.646000000000000
-0.074154770848986 -0.117809781685239 1.645000000000000
-0.074109691960932 -0.113232648005130 1.644000000000000
-0.073974455296769 -0.108528724039837 1.641000000000000
-0.073929376408715 -0.103968033851669 1.640000000000000
-0.073884297520661 -0.099412824827480 1.639000000000000
-0.073884297520661 -0.094921010945884 1.639000000000000
-0.073929376408715 -0.090484370460911 1.640000000000000
-0.073929376408715 -0.085989815997325 1.640000000000000
-0.073929376408715 -0.081495261533739 1.640000000000000
-0.073884297520661 -0.076953755419501 1.639000000000000
-0.073839218632607 -0.072417730469242 1.638000000000000
-0.073884297520661 -0.067970127656309 1.639000000000000
-0.074019534184823 -0.063594503488761 1.642000000000000
-0.074064613072878 -0.059130457183888 1.643000000000000
-0.074019534184823 -0.054594432233629 1.642000000000000
-0.073839218632607 -0.049972363971213 1.638000000000000
-0.073703981968445 -0.045399987941439 1.635000000000000
-0.073613824192337 -0.040869082398338 1.633000000000000
-0.073613824192337 -0.036393712008682 1.633000000000000
-0.073613824192337 -0.031918341619026 1.633000000000000
-0.073568745304283 -0.027426165980608 1.632000000000000
-0.073523666416228 -0.022939471506169 1.631000000000000
-0.073523666416228 -0.018469582280493 1.631000000000000
-0.073478587528174 -0.013991109552024 1.630000000000000
-0.073433508640120 -0.009518117987536 1.629000000000000
-0.073433508640120 -0.005053709925840 1.629000000000000
-0.073343350864012 -0.000588578350499 1.627000000000000
-0.073388429752066 0.003872727372385 1.628000000000000
-0.073298271975958 0.008324156037776 1.626000000000000
-0.073298271975958 0.012780342353502 1.626000000000000
-0.073117956423742 0.017194126384679 1.622000000000000
-0.073027798647633 0.021612668066191 1.620000000000000
-0.072937640871525 0.026020247419742 1.618000000000000
-0.072982719759579 0.030473331396655 1.619000000000000
-0.072982719759579 0.034910333638451 1.619000000000000
-0.072982719759579 0.039347335880248 1.619000000000000
-0.072937640871525 0.043757294058966 1.618000000000000
-0.072937640871525 0.048191555718772 1.618000000000000
-0.072847483095417 0.052560766924464 1.616000000000000
-0.072712246431255 0.056883749993149 1.613000000000000
-0.072622088655147 0.061228295960930 1.611000000000000
-0.072622088655147 0.065643373546806 1.611000000000000
-0.072622088655147 0.070058451132683 1.611000000000000
-0.072577009767092 0.074427300581551 1.610000000000000
-0.072577009767092 0.078839637585438 1.610000000000000
-0.072577009767092 0.083251974589324 1.610000000000000
-0.072441773102930 0.087500961944278 1.607000000000000
-0.072351615326822 0.091790696272260 1.605000000000000
-0.072216378662660 0.096009537225325 1.602000000000000
-0.072171299774606 0.100337277944344 1.601000000000000
-0.072126220886551 0.104659537499383 1.600000000000000
-0.072126220886551 0.109044468683370 1.600000000000000
-0.072126220886551 0.113429399867356 1.600000000000000
-0.071990984222389 0.117593429180621 1.597000000000000
-0.071990984222389 0.121970138618637 1.597000000000000
-0.071945905334335 0.126267732935766 1.596000000000000
-0.071945905334335 0.130641701791792 1.596000000000000
-0.071900826446281 0.134931074362952 1.595000000000000
-0.071855747558227 0.139214965770131 1.594000000000000
-0.071900826446281 0.143673530911024 1.595000000000000
-0.071765589782119 0.147766305092549 1.592000000000000
-0.071630353117956 0.151842635782135 1.589000000000000
-0.071450037565740 0.155804223784963 1.585000000000000
-0.071450037565740 0.160148046239099 1.585000000000000
-0.071540195341848 0.164699429410830 1.587000000000000
-0.071540195341848 0.169048733028946 1.587000000000000
-0.071450037565740 0.173179513601508 1.585000000000000
-0.071359879789632 0.177299331846111 1.583000000000000
-0.071269722013524 0.181408187762753 1.581000000000000
-0.071269722013524 0.185741047888930 1.581000000000000
-0.071224643125470 0.189953684164369 1.580000000000000
-0.071224643125470 0.194283803708556 1.580000000000000
-0.071134485349361 0.198362513223308 1.578000000000000
-0.071089406461307 0.202558706006808 1.577000000000000
-0.071134485349361 0.207011789983721 1.578000000000000
-0.071134485349361 0.211336428363927 1.578000000000000
-0.071134485349361 0.215661066744134 1.578000000000000
-0.071089406461307 0.219846297199673 1.577000000000000
-0.070999248685199 0.223883897984576 1.575000000000000
-0.070909090909091 0.227910536441519 1.573000000000000
-0.070864012021037 0.232073842241138 1.572000000000000
-0.070818933132983 0.236231666876778 1.571000000000000
-0.070773854244929 0.240384010348438 1.570000000000000
-0.070728775356875 0.244530872656117 1.569000000000000
-0.070818933132983 0.249148029795607 1.571000000000000
-0.070864012021037 0.253614816682471 1.572000000000000
-0.070818933132983 0.257758938408160 1.571000000000000
-0.070728775356875 0.261730765225303 1.569000000000000
-0.070683696468820 0.265861184041043 1.568000000000000
-0.070638617580766 0.269986121692803 1.567000000000000
-0.070638617580766 0.274280613671119 1.567000000000000
-0.070728775356875 0.278930657794489 1.569000000000000
-0.070773854244929 0.283411147591302 1.570000000000000
-0.070773854244929 0.287713861315589 1.570000000000000
-0.070728775356875 0.291830577221379 1.569000000000000
-0.070728775356875 0.296130550363675 1.569000000000000
-0.070773854244929 0.300622002488448 1.570000000000000
-0.070773854244929 0.304924716212735 1.570000000000000
-0.070728775356875 0.309030469790565 1.569000000000000
-0.070818933132983 0.313729844389755 1.571000000000000
-0.070864012021037 0.318237740006468 1.572000000000000
-0.070864012021037 0.322545934894734 1.572000000000000
-0.070728775356875 0.326230362359751 1.569000000000000
-0.070728775356875 0.330530335502047 1.569000000000000
-0.070773854244929 0.335043712282740 1.570000000000000
-0.070818933132983 0.339562570227413 1.571000000000000
-0.070818933132983 0.343868024533690 1.571000000000000
-0.070864012021037 0.348395104224333 1.572000000000000
-0.070818933132983 0.352478933146243 1.571000000000000
-0.070773854244929 0.356557280904173 1.570000000000000
-0.070683696468820 0.360400300367786 1.568000000000000
-0.070638617580766 0.364464945215766 1.567000000000000
-0.070683696468820 0.368994765488399 1.568000000000000
-0.070773854244929 0.373768135801319 1.570000000000000
-0.070773854244929 0.378070849525605 1.570000000000000
-0.070773854244929 0.382373563249892 1.570000000000000
-0.070864012021037 0.387168858218731 1.572000000000000
-0.070909090909091 0.391726084311264 1.573000000000000
-0.070864012021037 0.395785247995264 1.572000000000000
-0.070818933132983 0.399838930515284 1.571000000000000
-0.070818933132983 0.404144384821561 1.571000000000000
-0.070864012021037 0.408709832660064 1.572000000000000
-0.070864012021037 0.413018027548330 1.572000000000000
-0.070864012021037 0.417326222436597 1.572000000000000
-0.070818933132983 0.421366202046667 1.571000000000000
-0.070864012021037 0.425942612213130 1.572000000000000
-0.070909090909091 0.430524503543572 1.573000000000000
-0.070909090909091 0.434835439013829 1.573000000000000
-0.070773854244929 0.438308841665616 1.570000000000000
-0.070864012021037 0.443175391766195 1.572000000000000
-0.070909090909091 0.447768245424598 1.573000000000000
-0.070909090909091 0.452079180894855 1.573000000000000
-0.070864012021037 0.456099976430995 1.572000000000000
-0.070954169797145 0.460993932351474 1.574000000000000
-0.070999248685199 0.465603229501817 1.575000000000000
-0.070999248685199 0.469919646136053 1.575000000000000
-0.070954169797145 0.473934960508213 1.574000000000000
-0.070954169797145 0.478248636560460 1.574000000000000
-0.070954169797145 0.482562312612706 1.574000000000000
-0.070954169797145 0.486875988664953 1.574000000000000
-0.070954169797145 0.491189664717199 1.574000000000000
-0.070954169797145 0.495503340769446 1.574000000000000
-0.070999248685199 0.500134562575709 1.575000000000000
-0.070954169797145 0.504130692873939 1.574000000000000
-0.070999248685199 0.508767395844181 1.575000000000000
-0.070909090909091 0.512432277478445 1.573000000000000
-0.070954169797145 0.517071721030678 1.574000000000000
-0.070954169797145 0.521385397082925 1.574000000000000
-0.070999248685199 0.526033062381127 1.575000000000000
-0.070909090909091 0.529676019359471 1.573000000000000
-0.070909090909091 0.533986954829728 1.573000000000000
-0.070818933132983 0.537613468316132 1.571000000000000
-0.070864012021037 0.542263874196324 1.572000000000000
-0.070864012021037 0.546572069084591 1.572000000000000
-0.070999248685199 0.551931562186546 1.575000000000000
-0.070999248685199 0.556247978820782 1.575000000000000
-0.070999248685199 0.560564395455019 1.575000000000000
-0.070954169797145 0.564522157605389 1.574000000000000
-0.070909090909091 0.568474438591779 1.573000000000000
-0.070864012021037 0.572421238414190 1.572000000000000
-0.070954169797145 0.577463185762128 1.574000000000000
-0.070999248685199 0.582146478626201 1.575000000000000
-0.071089406461307 0.587207610048070 1.577000000000000
-0.071044327573253 0.591154409870480 1.576000000000000
-0.071044327573253 0.595473567086707 1.576000000000000
-0.071044327573253 0.599792724302933 1.576000000000000
-0.071044327573253 0.604111881519159 1.576000000000000
-0.070999248685199 0.608044978431620 1.575000000000000
-0.070999248685199 0.612361395065856 1.575000000000000
-0.070954169797145 0.616286270232347 1.574000000000000
-0.070954169797145 0.620599946284593 1.574000000000000
-0.070999248685199 0.625310644968565 1.575000000000000
-0.071089406461307 0.630426588030234 1.577000000000000
-0.071089406461307 0.634748485828450 1.577000000000000
-0.071089406461307 0.639070383626667 1.577000000000000
-0.071044327573253 0.642984296465197 1.576000000000000
-0.071044327573253 0.647303453681424 1.576000000000000
-0.070999248685199 0.651209144773984 1.575000000000000
-0.071134485349361 0.656774181525189 1.578000000000000
-0.071134485349361 0.661098819905395 1.578000000000000
-0.071134485349361 0.665423458285602 1.578000000000000
-0.071089406461307 0.669323668214182 1.577000000000000
-0.071134485349361 0.674072735046014 1.578000000000000
-0.071179564237415 0.678827283041827 1.579000000000000
-0.071224643125470 0.683587312201619 1.580000000000000
-0.071224643125470 0.687917431745805 1.580000000000000
-0.071269722013524 0.692685682651568 1.581000000000000
-0.071314800901578 0.697459414721310 1.582000000000000
-0.071269722013524 0.701351402903921 1.581000000000000
-0.071224643125470 0.705237909922551 1.580000000000000
-0.071224643125470 0.709568029466738 1.580000000000000
-0.071269722013524 0.714349983282450 1.581000000000000
-0.071314800901578 0.719137418262142 1.582000000000000
-0.071314800901578 0.723473018970309 1.582000000000000
-0.071269722013524 0.727348563660979 1.581000000000000
-0.071314800901578 0.732144220386641 1.582000000000000
-0.071359879789632 0.736945358276283 1.583000000000000
-0.071314800901578 0.740815421802974 1.582000000000000
-0.071359879789632 0.745622040856596 1.583000000000000
-0.071404958677686 0.750434141074199 1.584000000000000
-0.071495116453794 0.755728221965217 1.586000000000000
-0.071540195341848 0.760554025092769 1.587000000000000
-0.071450037565740 0.763939367364053 1.585000000000000
-0.071404958677686 0.767798468562784 1.584000000000000
-0.071359879789632 0.771652088597535 1.583000000000000
-0.071404958677686 0.776480632307077 1.584000000000000
-0.071404958677686 0.780821714179223 1.584000000000000
-0.071359879789632 0.784667112468004 1.583000000000000
-0.071359879789632 0.789005453758160 1.583000000000000
-0.071495116453794 0.794847289290354 1.586000000000000
-0.071450037565740 0.798689946997144 1.585000000000000
-0.071495116453794 0.803540415362606 1.586000000000000
-0.071450037565740 0.807377591905417 1.585000000000000
-0.071585274229902 0.813257795585471 1.588000000000000
-0.071585274229902 0.817609839785577 1.588000000000000
-0.071630353117956 0.822479492224969 1.589000000000000
-0.071720510894065 0.827874974649617 1.591000000000000
-0.071765589782119 0.832758329998958 1.592000000000000
-0.071765589782119 0.837121336527025 1.592000000000000
-0.071765589782119 0.841484343055091 1.592000000000000
-0.071855747558227 0.846909971881629 1.594000000000000
-0.071855747558227 0.851278459573675 1.594000000000000
-0.071900826446281 0.856183739578937 1.595000000000000
-0.071855747558227 0.860015434957768 1.594000000000000
-0.071855747558227 0.864383922649814 1.594000000000000
-0.071765589782119 0.867662382223489 1.592000000000000
-0.071765589782119 0.872025388751555 1.592000000000000
-0.071765589782119 0.876388395279622 1.592000000000000
-0.071945905334335 0.882964345028310 1.596000000000000
-0.072036063110443 0.888450266658628 1.598000000000000
-0.072081141998497 0.893388433647769 1.599000000000000
-0.072081141998497 0.897770624249766 1.599000000000000
-0.072171299774606 0.903281211117993 1.601000000000000
-0.072216378662660 0.908235821599075 1.602000000000000
-0.072351615326822 0.914335271838327 1.605000000000000
-0.072306536438768 0.918161486053178 1.604000000000000
-0.072351615326822 0.923132540026200 1.605000000000000
-0.072351615326822 0.927531174120136 1.605000000000000
-0.072577009767092 0.934833016339350 1.610000000000000
-0.072622088655147 0.939828735550281 1.611000000000000
-0.072531930879038 0.943071567558087 1.609000000000000
-0.072486851990984 0.946892300608957 1.608000000000000
-0.072531930879038 0.951890760401879 1.609000000000000
-0.072622088655147 0.957489045893786 1.611000000000000
-0.072622088655147 0.961904123479662 1.611000000000000
-0.072712246431255 0.967518852463509 1.613000000000000
-0.072712246431255 0.971939411213365 1.613000000000000
-0.072712246431255 0.976359969963221 1.613000000000000
-0.072847483095417 0.982604671047944 1.616000000000000
-0.073208114199850 0.991919755759333 1.624000000000000
-0.073478587528174 1.000051632564692 1.630000000000000
-0.073523666416228 1.005135050399303 1.631000000000000
-0.073478587528174 1.008985929852063 1.630000000000000
-0.073433508640120 1.012831328140844 1.629000000000000
-0.073478587528174 1.017920227139435 1.630000000000000
-0.073568745304283 1.023641838820892 1.632000000000000
-0.073703981968445 1.030004384931184 1.635000000000000
-0.073839218632607 1.036383374533416 1.638000000000000
-0.073839218632607 1.040872447833022 1.638000000000000
-0.073929376408715 1.046637908826318 1.640000000000000
-0.074019534184823 1.052414332147575 1.642000000000000
-0.074019534184823 1.056914367775141 1.642000000000000
-0.074064613072878 1.062060818995522 1.643000000000000
-0.074199849737040 1.068511063729493 1.646000000000000
-0.074380165289256 1.075629648712201 1.650000000000000
-0.074470323065364 1.081460883673257 1.652000000000000
-0.074470323065364 1.085988325120723 1.652000000000000
-0.074515401953418 1.091175885070954 1.653000000000000
-0.074425244177310 1.094380348930899 1.651000000000000
-0.074470323065364 1.099570649463120 1.652000000000000
-0.074560480841473 1.105434771408056 1.654000000000000
-0.074740796393689 1.112652017342403 1.658000000000000
-0.074695717505635 1.116522080869093 1.657000000000000
-0.074515401953418 1.118356977247688 1.653000000000000
-0.074244928625094 1.118811343816973 1.647000000000000
-0.074380165289256 1.125371211830544 1.650000000000000
-0.074605559729527 1.133317090817406 1.655000000000000
-0.074740796393689 1.139915326978837 1.658000000000000
-0.074605559729527 1.142388417204278 1.655000000000000
-0.074470323065364 1.144845063937778 1.652000000000000
-0.074605559729527 1.151459743591149 1.655000000000000
-0.074921111945905 1.160884813338961 1.662000000000000
-0.075056348610068 1.167543342304172 1.665000000000000
-0.075191585274230 1.174218314761323 1.668000000000000
-0.075101427498122 1.177376188727438 1.666000000000000
-0.075281743050338 1.184779794237104 1.670000000000000
-0.075462058602554 1.192205324402690 1.674000000000000
-0.075642374154771 1.199652779224196 1.678000000000000
-0.075642374154771 1.204251475803402 1.678000000000000
-0.075597295266717 1.208129761076062 1.677000000000000
-0.077175056348610 1.238036033172004 1.712000000000000
-0.088123762038112 -0.947475902062562 2.081000000000000
-0.086302848166109 -0.922312766179026 2.038000000000000
-0.085667645652619 -0.909980202035704 2.023000000000000
-0.085455911481456 -0.902200621563995 2.018000000000000
-0.085074789973362 -0.892671102755381 2.009000000000000
-0.085117136807595 -0.887606868994700 2.010000000000000
-0.085286524144526 -0.883853718695702 2.014000000000000
-0.085371217812991 -0.879206415154322 2.016000000000000
-0.085074789973362 -0.870647785883810 2.009000000000000
-0.084990096304897 -0.864280690407415 2.007000000000000
-0.085328870978758 -0.862203482731593 2.015000000000000
-0.085752339321085 -0.860932729674474 2.025000000000000
-0.085794686155317 -0.855805462528023 2.026000000000000
-0.085794686155317 -0.850253043416300 2.026000000000000
-0.085752339321085 -0.844283694085276 2.025000000000000
-0.086133460829178 -0.842461722291346 2.034000000000000
-0.085964073492248 -0.835241582302418 2.030000000000000
-0.085794686155317 -0.828043366969410 2.026000000000000
-0.085667645652619 -0.821273044183663 2.023000000000000
-0.085794686155317 -0.816938528745965 2.026000000000000
-0.085837032989550 -0.811786596361603 2.027000000000000
-0.085794686155317 -0.805833690522519 2.026000000000000
-0.085837032989550 -0.800676276974178 2.027000000000000
-0.085964073492248 -0.796297912224640 2.030000000000000
-0.086218154497644 -0.793071677181366 2.036000000000000
-0.086429888668807 -0.789425771336801 2.041000000000000
-0.086472235503039 -0.784216286730650 2.042000000000000
-0.086302848166109 -0.777094807693362 2.038000000000000
-0.086472235503039 -0.773023749883525 2.042000000000000
-0.086599276005737 -0.768554945928317 2.045000000000000
-0.086599276005737 -0.762950455758785 2.045000000000000
-0.086387541834574 -0.755494263961895 2.040000000000000
-0.086260501331876 -0.748800677471868 2.037000000000000
-0.086345195000342 -0.743947830281239 2.039000000000000
-0.086133460829178 -0.736549190706138 2.034000000000000
-0.085921726658015 -0.729177956950938 2.029000000000000
-0.085667645652619 -0.721477491600116 2.023000000000000
-0.085286524144526 -0.712748222732580 2.014000000000000
-0.084693668465269 -0.702312503083155 2.000000000000000
-0.083677344443686 -0.688469363033934 1.976000000000000
-0.082915101427498 -0.676831821445602 1.958000000000000
-0.082661020422102 -0.669408154875769 1.952000000000000
-0.082322245748241 -0.661336987442653 1.944000000000000
-0.081856430571682 -0.652297309296602 1.933000000000000
-0.081475309063589 -0.643987349473534 1.924000000000000
-0.081432962229356 -0.638382497547179 1.923000000000000
-0.081178881223960 -0.631136968806696 1.917000000000000
-0.080924800218564 -0.623924327050092 1.911000000000000
-0.080374291373540 -0.614478319255877 1.898000000000000
