# This PCD file was generated using the MATLAB® pcwrite function
# from Computer Vision System Toolbox®.
# .PCD v.7 - Point Cloud Data file format
VERSION .7
FIELDS x y z
SIZE 8 8 8
TYPE F F F
COUNT 1 1 1
WIDTH 861
HEIGHT 1
VIEWPOINT 0 0 0 1 0 0 0
POINTS 861
DATA ascii
-0.094173895225736 0.360522946893002 1.532000000000000
-0.093928010381805 0.363769242996443 1.528000000000000
-0.093743596748856 0.367234423902260 1.525000000000000
-0.094050952803770 0.372631561638430 1.530000000000000
-0.094850078546547 0.380026430172711 1.543000000000000
-0.095218905812445 0.385749335408867 1.549000000000000
-0.094911549757530 0.388735637980081 1.544000000000000
-0.094604193702616 0.391694534731395 1.539000000000000
-0.094419780069667 0.395140531563283 1.536000000000000
-0.094112424014753 0.398050097838777 1.531000000000000
-0.094112424014753 0.402245928865454 1.531000000000000
-0.093928010381805 0.405645335803511 1.528000000000000
-0.094665664913599 0.413051528422576 1.540000000000000
-0.094604193702616 0.417001068826976 1.539000000000000
-0.094296837647702 0.419850342298691 1.534000000000000
-0.094050952803770 0.422948646974671 1.530000000000000
-0.093989481592787 0.426862559813202 1.529000000000000
-0.093805067959839 0.430207155111459 1.526000000000000
-0.093743596748856 0.434104624458050 1.525000000000000
-0.093682125537873 0.437996612640660 1.524000000000000
-0.094050952803770 0.443914099198106 1.530000000000000
-0.094112424014753 0.448400070158899 1.531000000000000
-0.094419780069667 0.454074006676058 1.536000000000000
-0.094112424014753 0.456791732212253 1.531000000000000
-0.093989481592787 0.460385358714777 1.529000000000000
-0.093866539170822 0.463968022889341 1.527000000000000
-0.093989481592787 0.468766058440170 1.529000000000000
-0.094050952803770 0.473265732310914 1.530000000000000
-0.094112424014753 0.477770887345637 1.531000000000000
-0.094235366436719 0.482596328716366 1.533000000000000
-0.094173895225736 0.486480095153007 1.532000000000000
-0.094235366436719 0.490998953097680 1.533000000000000
-0.094173895225736 0.494877238370340 1.532000000000000
-0.094235366436719 0.499401577478993 1.533000000000000
-0.094235366436719 0.503602889669650 1.533000000000000
-0.094112424014753 0.507141704532375 1.531000000000000
-0.094112424014753 0.511337535559051 1.531000000000000
-0.094173895225736 0.515870096413674 1.532000000000000
-0.094173895225736 0.520068668022341 1.532000000000000
-0.094112424014753 0.523925028639082 1.531000000000000
-0.094050952803770 0.527775908091842 1.530000000000000
-0.094050952803770 0.531968998536529 1.530000000000000
-0.094050952803770 0.536162088981216 1.530000000000000
-0.094112424014753 0.540708352745789 1.531000000000000
-0.094112424014753 0.544904183772466 1.531000000000000
-0.094173895225736 0.549458669283009 1.532000000000000
-0.094112424014753 0.553295845825820 1.531000000000000
-0.094112424014753 0.557491676852496 1.531000000000000
-0.094112424014753 0.561687507879173 1.531000000000000
-0.094235366436719 0.566622572529502 1.533000000000000
-0.094173895225736 0.570451527326343 1.532000000000000
-0.094112424014753 0.574275000959204 1.531000000000000
-0.094112424014753 0.578470831985880 1.531000000000000
-0.094173895225736 0.583047242152343 1.532000000000000
-0.094173895225736 0.587245813761010 1.532000000000000
-0.094235366436719 0.591830445673443 1.533000000000000
-0.094296837647702 0.596420558749856 1.534000000000000
-0.094358308858685 0.601016152990249 1.535000000000000
-0.094358308858685 0.605222946344886 1.535000000000000
-0.094358308858685 0.609429739699523 1.535000000000000
-0.094296837647702 0.613236769840443 1.534000000000000
-0.094358308858685 0.617843326408796 1.535000000000000
-0.094481251280650 0.622860608518825 1.537000000000000
-0.094542722491633 0.627480867997128 1.538000000000000
-0.094542722491633 0.631695883097735 1.538000000000000
-0.094604193702616 0.636324364322007 1.539000000000000
-0.094604193702616 0.640542120004604 1.539000000000000
-0.094542722491633 0.644340928399555 1.538000000000000
-0.094604193702616 0.648977631369798 1.539000000000000
-0.094665664913599 0.653619815504020 1.540000000000000
-0.094727136124582 0.658267480802223 1.541000000000000
-0.094727136124582 0.662490717648800 1.541000000000000
-0.094727136124582 0.666713954495377 1.541000000000000
-0.094665664913599 0.670501800562367 1.540000000000000
-0.094788607335565 0.675598559550106 1.542000000000000
-0.094850078546547 0.680265408922239 1.543000000000000
-0.094850078546547 0.684494126932795 1.543000000000000
-0.094788607335565 0.688276491835806 1.542000000000000
-0.094788607335565 0.692502469264373 1.542000000000000
-0.094850078546547 0.697180280964465 1.543000000000000
-0.094973020968513 0.702318148682054 1.545000000000000
-0.094911549757530 0.706095032421085 1.544000000000000
-0.095034492179496 0.711246603048623 1.546000000000000
-0.095034492179496 0.715483542805150 1.546000000000000
-0.095157434601462 0.720651556924628 1.548000000000000
-0.095095963390479 0.724425700081669 1.547000000000000
-0.095034492179496 0.728194362074730 1.546000000000000
-0.094973020968513 0.731957542903811 1.545000000000000
-0.094973020968513 0.736191742078348 1.545000000000000
-0.094911549757530 0.739946701161459 1.544000000000000
-0.094973020968513 0.744660140427421 1.545000000000000
-0.094973020968513 0.748894339601958 1.545000000000000
-0.095095963390479 0.754103462451286 1.547000000000000
-0.095218905812445 0.759323547628574 1.549000000000000
-0.095157434601462 0.763075766129695 1.548000000000000
-0.095280377023427 0.768309554216933 1.550000000000000
-0.095157434601462 0.771560607970709 1.548000000000000
-0.095095963390479 0.775301864143869 1.547000000000000
-0.095095963390479 0.779541544482386 1.547000000000000
-0.095034492179496 0.783274578909577 1.546000000000000
-0.095095963390479 0.788020905159419 1.547000000000000
-0.095095963390479 0.792260585497936 1.547000000000000
-0.095280377023427 0.798044868808340 1.550000000000000
-0.095403319445393 0.803327987371398 1.552000000000000
-0.095341848234410 0.807061021798589 1.551000000000000
-0.095341848234410 0.811311664465066 1.551000000000000
-0.095403319445393 0.816088137116798 1.552000000000000
-0.095341848234410 0.819812949798019 1.551000000000000
-0.095341848234410 0.824063592464496 1.551000000000000
-0.095218905812445 0.827246131668521 1.549000000000000
-0.095341848234410 0.832564877797449 1.551000000000000
-0.095280377023427 0.836275987568720 1.550000000000000
-0.095403319445393 0.841608436607598 1.552000000000000
-0.095403319445393 0.845861819856065 1.552000000000000
-0.095403319445393 0.850115203104531 1.552000000000000
-0.095341848234410 0.853818091129832 1.551000000000000
-0.095587733078342 0.860281677016931 1.555000000000000
-0.095710675500307 0.865655234785659 1.557000000000000
-0.095710675500307 0.869922320944076 1.557000000000000
-0.095710675500307 0.874189407102492 1.557000000000000
-0.095649204289324 0.877892295127793 1.556000000000000
-0.095710675500307 0.882723579419325 1.557000000000000
-0.095710675500307 0.886990665577742 1.557000000000000
-0.095895089133256 0.892975011373415 1.560000000000000
-0.095772146711290 0.896099998355651 1.558000000000000
-0.095833617922273 0.900947726139123 1.559000000000000
-0.095895089133256 0.905800935086575 1.560000000000000
-0.096140973977187 0.912409771819143 1.564000000000000
-0.096325387610136 0.918454410418596 1.567000000000000
-0.096509801243085 0.924515492509989 1.570000000000000
-0.096571272454067 0.929409810187291 1.571000000000000
-0.096632743665050 0.934309609028573 1.572000000000000
-0.096571272454067 0.938020718799844 1.571000000000000
-0.096817157297999 0.944725475902062 1.575000000000000
-0.097001570930947 0.950849591379225 1.578000000000000
-0.097308926985862 0.958200764074259 1.583000000000000
-0.097370398196844 0.963147152809371 1.584000000000000
-0.097677754251759 0.970542174816244 1.589000000000000
-0.097923639095690 0.977351074034082 1.593000000000000
-0.098046581517656 0.982949359525989 1.595000000000000
-0.097985110306673 0.986701578027110 1.594000000000000
-0.098046581517656 0.991691816074061 1.595000000000000
-0.098108052728639 0.996687535284993 1.596000000000000
-0.098108052728639 1.001061504141019 1.596000000000000
-0.098108052728639 1.005435472997046 1.596000000000000
-0.098292466361587 1.011707579901668 1.599000000000000
-0.098353937572570 1.016725223768520 1.600000000000000
-0.098476879994536 1.022386542646196 1.602000000000000
-0.098661293627484 1.028699758280668 1.605000000000000
-0.098845707260433 1.035029417407081 1.608000000000000
-0.098968649682399 1.040729104432617 1.610000000000000
-0.098968649682399 1.045141441436503 1.610000000000000
-0.098907178471416 1.048901881683594 1.609000000000000
-0.098907178471416 1.053311478105490 1.609000000000000
-0.098907178471416 1.057721074527387 1.609000000000000
-0.098968649682399 1.062790789452048 1.610000000000000
-0.098907178471416 1.066540267371179 1.609000000000000
-0.099214534526330 1.074277862126801 1.614000000000000
-0.099460419370262 1.081374522453588 1.618000000000000
-0.099583361792227 1.087150945774845 1.620000000000000
-0.099521890581244 1.090916867185916 1.619000000000000
-0.099583361792227 1.096030431422417 1.620000000000000
-0.099890717847142 1.103866687129679 1.625000000000000
-0.100136602691073 1.111048305498156 1.629000000000000
-0.100443958745987 1.118936632263227 1.634000000000000
-0.100443958745987 1.123414743234873 1.634000000000000
-0.100812786011884 1.132034443634450 1.640000000000000
-0.101243084488764 1.141380036504552 1.647000000000000
-0.101857796598593 1.152851235728419 1.657000000000000
-0.102226623864490 1.161583299989586 1.663000000000000
-0.102533979919404 1.169647024002017 1.668000000000000
-0.102656922341370 1.175626250390533 1.670000000000000
-0.102779864763336 1.181616439107009 1.672000000000000
-0.102718393552353 1.185489243215689 1.671000000000000
-0.102964278396284 1.192917513963265 1.675000000000000
-0.102718393552353 1.194648268226241 1.671000000000000
-0.102656922341370 1.198510110006961 1.670000000000000
-0.102779864763336 1.204527704543337 1.672000000000000
-0.103333105662182 1.215618324627418 1.681000000000000
-0.103333105662182 1.220225242952593 1.681000000000000
-0.103394576873164 1.225560794330284 1.682000000000000
-0.103578990506113 1.232364574140964 1.685000000000000
-0.103886346561027 1.240653025876575 1.690000000000000
-0.103824875350044 1.244547754641176 1.689000000000000
-0.103640461717096 1.246957811480846 1.686000000000000
-0.103947817772010 1.255290112528297 1.691000000000000
-0.088519909842224 -0.735695324019009 1.507000000000000
-0.088284953213578 -0.729623487883887 1.503000000000000
-0.088578648999385 -0.727917914088236 1.508000000000000
-0.088108735742094 -0.715834534621772 1.500000000000000
-0.088989823099515 -0.714688916538316 1.515000000000000
-0.090986954443003 -0.726482978245260 1.549000000000000
-0.091750563486101 -0.728299205779339 1.562000000000000
-0.090164606242743 -0.711503373656430 1.535000000000000
-0.088167474899256 -0.691630076242991 1.501000000000000
-0.089107301413838 -0.690687622983617 1.517000000000000
-0.089400997199645 -0.688792949030656 1.522000000000000
-0.090458302028550 -0.692718492899152 1.540000000000000
-0.091750563486101 -0.698333682300773 1.562000000000000
-0.092396694214876 -0.698940589663621 1.573000000000000
-0.092102998429069 -0.692421676907308 1.568000000000000
-0.092514172529199 -0.691196428473551 1.575000000000000
-0.092807868315006 -0.689060583305471 1.580000000000000
-0.092631650843522 -0.683430342627560 1.577000000000000
-0.093630216515265 -0.686429208026617 1.594000000000000
-0.091926780957585 -0.669651836463991 1.565000000000000
-0.091456867700294 -0.661961609927484 1.557000000000000
-0.093982651458234 -0.675858213250166 1.600000000000000
-0.090575780342873 -0.647132375591281 1.542000000000000
-0.094746260501332 -0.672508443733111 1.613000000000000
-0.091221911071648 -0.643236506744572 1.553000000000000
-0.093806433986750 -0.657084141348257 1.597000000000000
-0.096743391844819 -0.673142855576810 1.647000000000000
-0.100267741274503 -0.692987190519779 1.707000000000000
-0.095509869544430 -0.655647605005399 1.626000000000000
-0.100620176217472 -0.686033763970117 1.713000000000000
-0.095451130387269 -0.646337486228575 1.625000000000000
-0.096567174373335 -0.644883629407541 1.644000000000000
-0.095216173758623 -0.631419051429762 1.621000000000000
-0.095157434601462 -0.626589784206574 1.620000000000000
-0.095509869544430 -0.624454300795317 1.626000000000000
-0.096097261116044 -0.623811141013906 1.636000000000000
-0.096449696059012 -0.621598921306929 1.642000000000000
-0.096156000273205 -0.615219778232105 1.637000000000000
-0.095979782801721 -0.609614202792105 1.634000000000000
-0.095451130387269 -0.601803028891215 1.625000000000000
-0.095744826173076 -0.599187581874887 1.630000000000000
-0.095744826173076 -0.594720433231201 1.630000000000000
-0.095979782801721 -0.591701758905521 1.634000000000000
-0.095921043644560 -0.586864269936364 1.633000000000000
-0.095744826173076 -0.581318987300143 1.630000000000000
-0.095803565330237 -0.577205735489989 1.631000000000000
-0.095568608701591 -0.571331221258146 1.627000000000000
-0.095568608701591 -0.566872294360430 1.627000000000000
-0.095686087015914 -0.563104717637838 1.629000000000000
-0.095803565330237 -0.559326178587285 1.631000000000000
-0.095627347858753 -0.553835707590864 1.628000000000000
-0.095451130387269 -0.548361680086383 1.625000000000000
-0.095333652072946 -0.543238808833444 1.623000000000000
-0.095333652072946 -0.538790844263688 1.623000000000000
-0.095098695444300 -0.533025953311445 1.619000000000000
-0.094746260501332 -0.526630004987859 1.613000000000000
-0.094452564715525 -0.520590694079795 1.608000000000000
-0.094041390615395 -0.513936769292327 1.601000000000000
-0.093865173143911 -0.508594289723366 1.598000000000000
-0.093453999043781 -0.502006138903658 1.591000000000000
-0.093806433986750 -0.499522601579671 1.597000000000000
-0.094158868929718 -0.497006177271805 1.603000000000000
-0.094393825558364 -0.493842252100656 1.607000000000000
-0.093806433986750 -0.486392473265623 1.597000000000000
-0.093336520729458 -0.479601157621833 1.589000000000000
-0.091456867700294 -0.465675646640320 1.557000000000000
-0.091456867700294 -0.461408560481904 1.557000000000000
-0.091633085171778 -0.458022286412743 1.560000000000000
-0.091574346014616 -0.453456115060594 1.559000000000000
-0.092279215900553 -0.452641022127459 1.571000000000000
-0.092044259271908 -0.447194038686055 1.567000000000000
-0.092161737586230 -0.443464830111322 1.569000000000000
-0.091456867700294 -0.435806043531404 1.557000000000000
-0.091456867700294 -0.431538957372988 1.557000000000000
-0.091456867700294 -0.427271871214571 1.557000000000000
-0.091456867700294 -0.423004785056154 1.557000000000000
-0.091398128543132 -0.418468760105896 1.556000000000000
-0.091456867700294 -0.414470612739321 1.557000000000000
-0.091515606857455 -0.410466984208767 1.558000000000000
-0.091398128543132 -0.405675723376616 1.556000000000000
-0.091104432757325 -0.400121495480780 1.551000000000000
-0.090869476128680 -0.394849909286736 1.547000000000000
-0.090751997814357 -0.390105238348416 1.545000000000000
-0.090693258657196 -0.385621284455967 1.544000000000000
-0.090751997814357 -0.381636839999342 1.545000000000000
-0.090634519500034 -0.376914093716942 1.543000000000000
-0.090693258657196 -0.372926908678327 1.544000000000000
-0.090693258657196 -0.368695450085780 1.544000000000000
-0.090928215285841 -0.365408198725081 1.548000000000000
-0.090928215285841 -0.361165777804575 1.548000000000000
-0.090517041185711 -0.355309362376194 1.541000000000000
-0.090282084557066 -0.350174805281650 1.537000000000000
-0.089988388771259 -0.344837083363023 1.532000000000000
-0.090164606242743 -0.341305558448392 1.535000000000000
-0.090223345399904 -0.337318373409777 1.536000000000000
-0.090282084557066 -0.333325707207183 1.537000000000000
-0.090105867085582 -0.328471051232440 1.534000000000000
-0.089870910456936 -0.323421452179585 1.530000000000000
-0.089870910456936 -0.319228361734898 1.530000000000000
-0.089870910456936 -0.315035271290211 1.530000000000000
-0.089988388771259 -0.311248510493688 1.532000000000000
-0.090047127928420 -0.307250363127114 1.533000000000000
-0.090223345399904 -0.303642101916763 1.536000000000000
-0.090223345399904 -0.299432567980136 1.536000000000000
-0.090164606242743 -0.295030831547387 1.535000000000000
-0.089988388771259 -0.290255652450354 1.532000000000000
-0.089870910456936 -0.285683638177403 1.530000000000000
-0.089870910456936 -0.281490547732717 1.530000000000000
-0.089929649614097 -0.277478697456192 1.531000000000000
-0.090105867085582 -0.273818365188031 1.534000000000000
-0.090164606242743 -0.269790071419567 1.535000000000000
-0.090282084557066 -0.265929314909314 1.537000000000000
-0.090282084557066 -0.261717040390697 1.537000000000000
-0.090164606242743 -0.257169691355656 1.535000000000000
-0.090105867085582 -0.252798101324797 1.534000000000000
-0.090105867085582 -0.248594048552151 1.534000000000000
-0.090105867085582 -0.244389995779504 1.534000000000000
-0.090047127928420 -0.240029368076605 1.533000000000000
-0.089929649614097 -0.235520387189424 1.531000000000000
-0.089988388771259 -0.231475649929019 1.532000000000000
-0.090047127928420 -0.227425431504634 1.533000000000000
-0.090105867085582 -0.223369731916270 1.534000000000000
-0.090105867085582 -0.219165679143623 1.534000000000000
-0.090223345399904 -0.215241889247601 1.536000000000000
-0.090282084557066 -0.211169746167296 1.537000000000000
-0.090399562871389 -0.207226772197344 1.539000000000000
-0.090340823714227 -0.202877106822405 1.538000000000000
-0.090282084557066 -0.198532922611446 1.537000000000000
-0.090223345399904 -0.194194219564467 1.536000000000000
-0.090164606242743 -0.189860997681468 1.535000000000000
-0.090164606242743 -0.185654204326831 1.535000000000000
-0.090105867085582 -0.181329204189802 1.534000000000000
-0.090105867085582 -0.177125151417155 1.534000000000000
-0.090164606242743 -0.173033824262920 1.535000000000000
-0.090223345399904 -0.168937015944706 1.536000000000000
-0.090340823714227 -0.164941970916944 1.538000000000000
-0.090223345399904 -0.160517948071452 1.536000000000000
-0.090105867085582 -0.156104887553921 1.534000000000000
-0.089988388771259 -0.151702789364349 1.532000000000000
-0.089988388771259 -0.147504217755683 1.532000000000000
-0.089988388771259 -0.143305646147016 1.532000000000000
-0.089929649614097 -0.139016273575857 1.531000000000000
-0.089929649614097 -0.134820442549180 1.531000000000000
-0.089929649614097 -0.130624611522503 1.531000000000000
-0.089870910456936 -0.126346201279304 1.530000000000000
-0.089870910456936 -0.122153110834617 1.530000000000000
-0.089929649614097 -0.118037118442472 1.531000000000000
-0.089988388771259 -0.113915644886348 1.532000000000000
-0.089929649614097 -0.109645456389119 1.531000000000000
-0.089988388771259 -0.105518501669014 1.532000000000000
-0.090105867085582 -0.101452201509513 1.534000000000000
-0.090164606242743 -0.097311543879458 1.535000000000000
-0.089929649614097 -0.092862132282412 1.531000000000000
-0.089988388771259 -0.088724215234347 1.532000000000000
-0.090047127928420 -0.084580817022303 1.533000000000000
-0.090223345399904 -0.080536803275544 1.536000000000000
-0.090047127928420 -0.076178192640989 1.533000000000000
-0.089988388771259 -0.071929928799680 1.532000000000000
-0.089870910456936 -0.067642935053688 1.530000000000000
-0.089988388771259 -0.063532785582346 1.532000000000000
-0.090047127928420 -0.059372943878362 1.533000000000000
-0.090105867085582 -0.055207621010398 1.534000000000000
-0.090047127928420 -0.050970319497048 1.533000000000000
-0.089929649614097 -0.046707990988966 1.531000000000000
-0.089929649614097 -0.042512159962290 1.531000000000000
-0.089870910456936 -0.038291301940880 1.530000000000000
-0.089929649614097 -0.034120497908936 1.531000000000000
-0.089929649614097 -0.029924666882259 1.531000000000000
-0.090047127928420 -0.025762446353108 1.533000000000000
-0.090105867085582 -0.021575198829223 1.534000000000000
-0.090047127928420 -0.017359821971794 1.533000000000000
-0.089870910456936 -0.013132759272759 1.530000000000000
-0.089988388771259 -0.008951354669678 1.532000000000000
-0.089929649614097 -0.004749680722198 1.531000000000000
-0.089929649614097 -0.000553849695521 1.531000000000000
-0.089870910456936 0.003639602505988 1.530000000000000
-0.089929649614097 0.007837812357832 1.531000000000000
-0.089929649614097 0.012033643384509 1.531000000000000
-0.089870910456936 0.016218873840049 1.530000000000000
-0.089694692985452 0.020371940825354 1.527000000000000
-0.089694692985452 0.024556809524071 1.527000000000000
-0.089753432142613 0.028760500539895 1.528000000000000
-0.089812171299775 0.032969672719699 1.529000000000000
-0.089812171299775 0.037160022582396 1.529000000000000
-0.089812171299775 0.041350372445092 1.529000000000000
-0.089753432142613 0.045510937662722 1.528000000000000
-0.089753432142613 0.049698546943429 1.528000000000000
-0.089812171299775 0.053921422033183 1.529000000000000
-0.089870910456936 0.058149778286917 1.530000000000000
-0.089870910456936 0.062342868731604 1.530000000000000
-0.089929649614097 0.066579446731308 1.531000000000000
-0.089988388771259 0.070821505894992 1.532000000000000
-0.089870910456936 0.074922140065664 1.530000000000000
-0.089870910456936 0.079115230510351 1.530000000000000
-0.089753432142613 0.083199421189084 1.528000000000000
-0.089753432142613 0.087387030469791 1.528000000000000
-0.089635953828290 0.091454777656583 1.526000000000000
-0.089694692985452 0.095699577402257 1.527000000000000
-0.089753432142613 0.099949858311911 1.528000000000000
-0.089694692985452 0.104069314799691 1.527000000000000
-0.089635953828290 0.108183290123491 1.526000000000000
-0.089577214671129 0.112291784283310 1.525000000000000
-0.089635953828290 0.116547546356944 1.526000000000000
-0.089635953828290 0.120729674473671 1.526000000000000
-0.089577214671129 0.124829946887521 1.525000000000000
-0.089635953828290 0.129093930707125 1.526000000000000
-0.089459736356806 0.133014048223281 1.523000000000000
-0.089518475513968 0.137278032042885 1.524000000000000
-0.089577214671129 0.141547497026469 1.525000000000000
-0.089635953828290 0.145822443174032 1.526000000000000
-0.089577214671129 0.149906272095942 1.525000000000000
-0.089518475513968 0.153984619853872 1.524000000000000
-0.089518475513968 0.158161266806619 1.524000000000000
-0.089518475513968 0.162337913759366 1.524000000000000
-0.089518475513968 0.166514560712113 1.524000000000000
-0.089518475513968 0.170691207664860 1.524000000000000
-0.089577214671129 0.174982597304364 1.525000000000000
-0.089635953828290 0.179279468107847 1.526000000000000
-0.089635953828290 0.183461596224574 1.526000000000000
-0.089518475513968 0.187397795475847 1.524000000000000
-0.089459736356806 0.191448737413877 1.523000000000000
-0.089400997199645 0.195494198187927 1.522000000000000
-0.089459736356806 0.199796550155391 1.523000000000000
-0.089518475513968 0.204104383286835 1.524000000000000
-0.089518475513968 0.208281030239582 1.524000000000000
-0.089459736356806 0.212318269267662 1.523000000000000
-0.089459736356806 0.216492175638419 1.523000000000000
-0.089459736356806 0.220666082009175 1.523000000000000
-0.089459736356806 0.224839988379932 1.523000000000000
-0.089400997199645 0.228863524498062 1.522000000000000
-0.089283518885322 0.232728468617596 1.520000000000000
-0.089283518885322 0.236894153242383 1.520000000000000
-0.089283518885322 0.241059837867169 1.520000000000000
-0.089283518885322 0.245225522491956 1.520000000000000
-0.089283518885322 0.249391207116743 1.520000000000000
-0.089224779728161 0.253390077996963 1.519000000000000
-0.089283518885322 0.257722576366317 1.520000000000000
-0.089224779728161 0.261715966082557 1.519000000000000
-0.089342258042483 0.266228981106428 1.521000000000000
-0.089342258042483 0.270397406313205 1.521000000000000
-0.089459736356806 0.274926864829015 1.523000000000000
-0.089459736356806 0.279100771199772 1.523000000000000
-0.089400997199645 0.283088679752032 1.522000000000000
-0.089283518885322 0.286882368739826 1.520000000000000
-0.089224779728161 0.290856574382136 1.519000000000000
-0.089283518885322 0.295213737989399 1.520000000000000
-0.089342258042483 0.299576382760643 1.521000000000000
-0.089400997199645 0.303944508695867 1.522000000000000
-0.089400997199645 0.308115674484634 1.522000000000000
-0.089459736356806 0.312492022165827 1.523000000000000
-0.089459736356806 0.316665928536584 1.523000000000000
-0.089400997199645 0.320629171850934 1.522000000000000
-0.089400997199645 0.324800337639701 1.522000000000000
-0.089459736356806 0.329187647648855 1.523000000000000
-0.089518475513968 0.333580438821988 1.524000000000000
-0.089577214671129 0.337978711159102 1.525000000000000
-0.089635953828290 0.342382464660195 1.526000000000000
-0.089694692985452 0.346791699325269 1.527000000000000
-0.089694692985452 0.350976568023986 1.527000000000000
-0.089577214671129 0.354696261298049 1.525000000000000
-0.089929649614097 0.360287618598686 1.531000000000000
-0.089988388771259 0.364721518501669 1.532000000000000
-0.089870910456936 0.368438471193743 1.530000000000000
-0.090340823714227 0.374579961960722 1.538000000000000
-0.090517041185711 0.379533848928158 1.541000000000000
-0.090693258657196 0.384504179387535 1.544000000000000
-0.090282084557066 0.386973235476286 1.537000000000000
-0.090164606242743 0.390676485258409 1.535000000000000
-0.090223345399904 0.395140531563283 1.536000000000000
-0.089870910456936 0.397790104306551 1.530000000000000
-0.089929649614097 0.402245928865454 1.531000000000000
-0.089812171299775 0.405910810499718 1.529000000000000
-0.090282084557066 0.412246882587986 1.537000000000000
-0.090164606242743 0.415917245386230 1.535000000000000
-0.089929649614097 0.419029252972161 1.531000000000000
-0.089812171299775 0.422672209950505 1.529000000000000
-0.089694692985452 0.426304204600889 1.527000000000000
-0.089577214671129 0.429925236923313 1.525000000000000
-0.089635953828290 0.434389283228186 1.526000000000000
-0.089694692985452 0.438858810697040 1.527000000000000
-0.089870910456936 0.443914099198106 1.530000000000000
-0.089870910456936 0.448107189642793 1.530000000000000
-0.089988388771259 0.452891522283672 1.532000000000000
-0.089929649614097 0.456791732212253 1.531000000000000
-0.089812171299775 0.460385358714777 1.529000000000000
-0.089694692985452 0.463968022889341 1.527000000000000
-0.089812171299775 0.468766058440170 1.529000000000000
-0.089870910456936 0.473265732310914 1.530000000000000
-0.089929649614097 0.477770887345637 1.531000000000000
-0.089929649614097 0.481966718372314 1.531000000000000
-0.089929649614097 0.486162549398990 1.531000000000000
-0.089870910456936 0.490038094089661 1.530000000000000
-0.089929649614097 0.494554211452344 1.531000000000000
-0.089988388771259 0.499075809979007 1.532000000000000
-0.089988388771259 0.503274381587674 1.532000000000000
-0.089929649614097 0.507141704532375 1.531000000000000
-0.089812171299775 0.510669557067139 1.529000000000000
-0.089929649614097 0.515533366585728 1.531000000000000
-0.089929649614097 0.519729197612405 1.531000000000000
-0.089988388771259 0.524267239631008 1.532000000000000
-0.089929649614097 0.528120859665759 1.531000000000000
-0.089988388771259 0.532664382848342 1.532000000000000
-0.089870910456936 0.536162088981216 1.530000000000000
-0.089870910456936 0.540355179425903 1.530000000000000
-0.089870910456936 0.544548269870590 1.530000000000000
-0.089929649614097 0.549100014799143 1.531000000000000
-0.089870910456936 0.552934450759963 1.530000000000000
-0.089870910456936 0.557127541204650 1.530000000000000
-0.089929649614097 0.561687507879173 1.531000000000000
-0.089988388771259 0.566252955717676 1.532000000000000
-0.089929649614097 0.570079169932527 1.531000000000000
-0.089870910456936 0.573899902983398 1.530000000000000
-0.089870910456936 0.578092993428084 1.530000000000000
-0.089988388771259 0.583047242152343 1.532000000000000
-0.089929649614097 0.586862494039234 1.531000000000000
-0.090047127928420 0.591830445673443 1.533000000000000
-0.090047127928420 0.596031757864100 1.533000000000000
-0.090105867085582 0.600624611522503 1.534000000000000
-0.090047127928420 0.604434382245414 1.533000000000000
-0.090105867085582 0.609032717067796 1.534000000000000
-0.090164606242743 0.613636533054159 1.535000000000000
-0.090282084557066 0.618648334000208 1.537000000000000
-0.090282084557066 0.622860608518825 1.537000000000000
-0.090282084557066 0.627072883037442 1.537000000000000
-0.090223345399904 0.630874432014383 1.536000000000000
-0.090282084557066 0.635497432074675 1.537000000000000
-0.090340823714227 0.640125913298948 1.538000000000000
-0.090340823714227 0.644340928399555 1.538000000000000
-0.090399562871389 0.648977631369798 1.539000000000000
-0.090399562871389 0.653195387052394 1.539000000000000
-0.090458302028550 0.657840311768607 1.540000000000000
-0.090399562871389 0.661630898417588 1.539000000000000
-0.090399562871389 0.665848654100185 1.539000000000000
-0.090340823714227 0.669631019003196 1.538000000000000
-0.090458302028550 0.674722296826954 1.540000000000000
-0.090575780342873 0.679824536978673 1.542000000000000
-0.090575780342873 0.684050514407240 1.542000000000000
-0.090517041185711 0.687830138728260 1.541000000000000
-0.090517041185711 0.692053375574837 1.541000000000000
-0.090634519500034 0.697180280964465 1.543000000000000
-0.090634519500034 0.701408998975022 1.543000000000000
-0.090634519500034 0.705637716985579 1.543000000000000
-0.090517041185711 0.708946322961144 1.541000000000000
-0.090575780342873 0.713632356407207 1.542000000000000
-0.090693258657196 0.718789408198725 1.544000000000000
-0.090869476128680 0.724425700081669 1.547000000000000
-0.090810736971518 0.728194362074730 1.546000000000000
-0.090751997814357 0.731957542903811 1.545000000000000
-0.090693258657196 0.735715242568912 1.544000000000000
-0.090693258657196 0.739946701161459 1.544000000000000
-0.090693258657196 0.744178159754005 1.544000000000000
-0.090751997814357 0.748894339601958 1.545000000000000
-0.090810736971518 0.753616000613890 1.546000000000000
-0.090869476128680 0.758343142789803 1.547000000000000
-0.090751997814357 0.761596937125568 1.545000000000000
-0.090751997814357 0.765831136300105 1.545000000000000
-0.090751997814357 0.770065335474641 1.545000000000000
-0.090810736971518 0.774800699396524 1.546000000000000
-0.090869476128680 0.779541544482386 1.547000000000000
-0.090810736971518 0.783274578909577 1.546000000000000
-0.090751997814357 0.787002132172788 1.545000000000000
-0.090810736971518 0.791748458422631 1.546000000000000
-0.090986954443003 0.797530001151044 1.549000000000000
-0.090928215285841 0.801257554414255 1.548000000000000
-0.090869476128680 0.804979626513486 1.547000000000000
-0.090869476128680 0.809219306852003 1.547000000000000
-0.090986954443003 0.814510647161031 1.549000000000000
-0.090986954443003 0.818755808663528 1.549000000000000
-0.091045693600164 0.823532281315260 1.550000000000000
-0.091045693600164 0.827780183399747 1.550000000000000
-0.091045693600164 0.832028085484233 1.550000000000000
-0.091045693600164 0.836275987568720 1.550000000000000
-0.091163171914487 0.841608436607598 1.552000000000000
-0.091163171914487 0.845861819856065 1.552000000000000
-0.091104432757325 0.849567448463356 1.551000000000000
-0.091104432757325 0.853818091129832 1.551000000000000
-0.091163171914487 0.858621969601464 1.552000000000000
-0.091339389385971 0.864543282011368 1.555000000000000
-0.091339389385971 0.868804887005804 1.555000000000000
-0.091339389385971 0.873066492000241 1.555000000000000
-0.091280650228810 0.876763898861562 1.554000000000000
-0.091398128543132 0.882156640704220 1.556000000000000
-0.091456867700294 0.886990665577742 1.557000000000000
-0.091574346014616 0.892402591494330 1.559000000000000
-0.091456867700294 0.895524837894575 1.557000000000000
-0.091515606857455 0.900369825096057 1.558000000000000
-0.091633085171778 0.905800935086575 1.560000000000000
-0.091868041800423 0.912409771819143 1.564000000000000
-0.091985520114746 0.917868287629561 1.566000000000000
-0.092044259271908 0.922748902396913 1.567000000000000
-0.091985520114746 0.926451790422214 1.566000000000000
-0.092102998429069 0.931932230888551 1.568000000000000
-0.092161737586230 0.936826548565853 1.569000000000000
-0.092396694214876 0.943525824504092 1.573000000000000
-0.092514172529199 0.949041892536299 1.575000000000000
-0.092807868315006 0.956384843485363 1.580000000000000
-0.092984085786490 0.962539105364415 1.583000000000000
-0.093219042415136 0.969320598762353 1.587000000000000
-0.093336520729458 0.974896959598340 1.589000000000000
-0.093453999043781 0.980484282762287 1.591000000000000
-0.093512738200943 0.985463558481279 1.592000000000000
-0.093688955672427 0.991691816074061 1.595000000000000
-0.093630216515265 0.995438553411202 1.594000000000000
-0.093571477358104 0.999179809584363 1.593000000000000
-0.093630216515265 1.004175528795295 1.594000000000000
-0.093806433986750 1.010442154535937 1.597000000000000
-0.093923912301072 1.016089770503664 1.599000000000000
-0.093923912301072 1.020471961105660 1.599000000000000
-0.093982651458234 1.025495086136492 1.600000000000000
-0.094217608086879 1.032454717363779 1.604000000000000
-0.094452564715525 1.039436273246987 1.608000000000000
-0.094452564715525 1.043843129086893 1.608000000000000
-0.094335086401202 1.046946191413209 1.606000000000000
-0.094276347244041 1.050692928750349 1.605000000000000
-0.094276347244041 1.055091562844285 1.605000000000000
-0.094452564715525 1.061470552446518 1.608000000000000
-0.094511303872686 1.066540267371179 1.609000000000000
-0.094863738815655 1.074943461793546 1.615000000000000
-0.094922477972816 1.080037841956118 1.616000000000000
-0.094922477972816 1.084466622451944 1.616000000000000
-0.094922477972816 1.088895402947770 1.616000000000000
-0.095039956287139 1.094677307433007 1.618000000000000
-0.095157434601462 1.100470174246203 1.620000000000000
-0.095039956287139 1.103545830752619 1.618000000000000
-0.095274912915784 1.110719227375125 1.622000000000000
-0.095509869544430 1.117914548653552 1.626000000000000
-0.096038521958883 1.128583119111174 1.635000000000000
-0.096332217744690 1.136528998098036 1.640000000000000
-0.096743391844819 1.145893775042068 1.647000000000000
-0.097272044259272 1.156693893435210 1.656000000000000
-0.097859435830886 1.168244569536787 1.666000000000000
-0.098035653302370 1.174922282575928 1.669000000000000
-0.097859435830886 1.177376188727438 1.666000000000000
-0.097918174988047 1.182651447301349 1.667000000000000
-0.097976914145209 1.187932187039239 1.668000000000000
-0.097918174988047 1.191788547655980 1.667000000000000
-0.097918174988047 1.196357097833296 1.667000000000000
-0.098153131616693 1.203807293236792 1.671000000000000
-0.098564305716823 1.213448868961813 1.678000000000000
-0.098564305716823 1.218047565541018 1.678000000000000
-0.098446827402500 1.221188996015194 1.676000000000000
-0.098564305716823 1.227244958699429 1.678000000000000
-0.098564305716823 1.231843655278635 1.678000000000000
-0.098740523188307 1.238652916253296 1.681000000000000
-0.098740523188307 1.243259834578471 1.681000000000000
-0.099680349702889 1.259744128303086 1.697000000000000
-0.085410832593402 -0.744482660337749 1.525000000000000
-0.085970903626801 -0.745157720493524 1.535000000000000
-0.085690868110102 -0.738537406203581 1.530000000000000
-0.085690868110102 -0.734344315758894 1.530000000000000
-0.084234683423263 -0.717743426714097 1.504000000000000
-0.087091045693600 -0.729296985907927 1.555000000000000
-0.086530974660201 -0.720372773962279 1.545000000000000
-0.085130797076702 -0.704550571959461 1.520000000000000
-0.084738747353323 -0.697159430616686 1.513000000000000
-0.084794754456663 -0.689321727882133 1.514000000000000
-0.085130797076702 -0.687887833460314 1.520000000000000
-0.085970903626801 -0.690469406883246 1.535000000000000
-0.086923024383580 -0.693862916088861 1.552000000000000
-0.086194932040161 -0.683833164330777 1.539000000000000
-0.086138924936821 -0.679173813190969 1.538000000000000
-0.087651116727000 -0.686807879721338 1.565000000000000
-0.087763130933679 -0.683391097493464 1.567000000000000
-0.088379209070419 -0.683863716338802 1.578000000000000
-0.087315074106960 -0.671357048502820 1.559000000000000
-0.085914896523462 -0.656387167498890 1.534000000000000
-0.087595109623660 -0.664937673684384 1.564000000000000
-0.086194932040161 -0.650091118870003 1.539000000000000
-0.087035038590260 -0.652168425206777 1.554000000000000
-0.087483095416980 -0.651245002548741 1.562000000000000
-0.088267194863739 -0.652762868402734 1.576000000000000
-0.093531862577693 -0.682543150463432 1.670000000000000
-0.092803770234274 -0.672688795952708 1.657000000000000
-0.094708011747831 -0.681857380113241 1.691000000000000
-0.092915784440953 -0.664407480692600 1.659000000000000
-0.093307834164333 -0.662645078188804 1.666000000000000
-0.093643876784373 -0.660449301973767 1.672000000000000
-0.095436104091251 -0.668419528291028 1.704000000000000
-0.091627621064135 -0.637261917420784 1.636000000000000
-0.090955535824056 -0.628136919476220 1.624000000000000
-0.091291578444095 -0.625990473737003 1.630000000000000
-0.092075677890854 -0.626861562241358 1.644000000000000
-0.092803770234274 -0.627277352378551 1.657000000000000
-0.092691756027594 -0.621984565042232 1.655000000000000
-0.091963663684175 -0.612598850051797 1.642000000000000
-0.091403592650775 -0.604395411169516 1.632000000000000
-0.091571613960795 -0.601025580592295 1.635000000000000
-0.091627621064135 -0.596909588200150 1.636000000000000
-0.091571613960795 -0.592063877485023 1.635000000000000
-0.091571613960795 -0.587583025931387 1.635000000000000
-0.091515606857455 -0.582745536962229 1.634000000000000
-0.091851649477495 -0.580390806991773 1.640000000000000
-0.091627621064135 -0.574491627522021 1.636000000000000
-0.091627621064135 -0.570008035386395 1.636000000000000
-0.091515606857455 -0.564833093075646 1.634000000000000
-0.091571613960795 -0.560697916609571 1.635000000000000
-0.091403592650775 -0.555196483285191 1.632000000000000
-0.091179564237415 -0.549374040111158 1.628000000000000
-0.091067550030736 -0.544242947112249 1.626000000000000
-0.090955535824056 -0.539122816441300 1.624000000000000
-0.090843521617376 -0.534013648098310 1.622000000000000
-0.090507478997336 -0.527609478028754 1.616000000000000
-0.090003415067277 -0.520266943648153 1.607000000000000
-0.089779386653917 -0.514578788991630 1.603000000000000
-0.089331329827198 -0.507639481920381 1.595000000000000
-0.089779386653917 -0.505792483131718 1.603000000000000
-0.089723379550577 -0.501086542098080 1.602000000000000
-0.090899528720716 -0.503207127705640 1.623000000000000
-0.090619493204016 -0.497222628437375 1.618000000000000
-0.090339457687316 -0.491265534989010 1.613000000000000
-0.088995287207158 -0.479601157621833 1.589000000000000
-0.087371081210300 -0.466572902221516 1.560000000000000
-0.087707123830339 -0.464075661987580 1.566000000000000
-0.087931152243699 -0.460958326710260 1.570000000000000
-0.089387336930538 -0.464218062627780 1.596000000000000
-0.088267194863739 -0.454081636456318 1.576000000000000
-0.089163308517178 -0.454328595780600 1.592000000000000
-0.088379209070419 -0.446008605427449 1.578000000000000
-0.087651116727000 -0.438045252489819 1.565000000000000
-0.087483095416980 -0.432924760062047 1.562000000000000
-0.087539102520320 -0.428918390949502 1.563000000000000
-0.087539102520320 -0.424634861299145 1.563000000000000
-0.087315074106960 -0.419275576481422 1.559000000000000
-0.087315074106960 -0.415003009159025 1.559000000000000
-0.087091045693600 -0.409676611325181 1.555000000000000
-0.087035038590260 -0.405154289284873 1.554000000000000
-0.086867017280240 -0.400121495480780 1.551000000000000
-0.086755003073561 -0.395360381050520 1.549000000000000
-0.086642988866881 -0.390610228948219 1.547000000000000
-0.086586981763541 -0.386120793891791 1.546000000000000
-0.086586981763541 -0.381883854135264 1.546000000000000
-0.086418960453521 -0.376914093716942 1.543000000000000
-0.086362953350181 -0.372443842734443 1.542000000000000
-0.086474967556861 -0.368695450085780 1.544000000000000
-0.086698995970221 -0.365408198725081 1.548000000000000
-0.086811010176901 -0.361632400256518 1.550000000000000
-0.086474967556861 -0.356001074308140 1.544000000000000
-0.086306946246841 -0.351086125529617 1.541000000000000
-0.086138924936821 -0.346187620243035 1.538000000000000
-0.086362953350181 -0.342862000734476 1.542000000000000
-0.086362953350181 -0.338636023305909 1.542000000000000
-0.086362953350181 -0.334410045877343 1.542000000000000
-0.086194932040161 -0.329541686992650 1.539000000000000
-0.085970903626801 -0.324478385029845 1.535000000000000
-0.085858889420122 -0.319854299699084 1.533000000000000
-0.085746875213442 -0.315241176696283 1.531000000000000
-0.085858889420122 -0.311451675317771 1.533000000000000
-0.085970903626801 -0.307651211611298 1.535000000000000
-0.086082917833481 -0.303839785576865 1.537000000000000
-0.086138924936821 -0.299822454136360 1.538000000000000
-0.086194932040161 -0.295799641531876 1.539000000000000
-0.086082917833481 -0.291202962021015 1.537000000000000
-0.085802882316782 -0.286057080841688 1.532000000000000
-0.085690868110102 -0.281490547732717 1.530000000000000
-0.085858889420122 -0.277841177792516 1.533000000000000
-0.085970903626801 -0.273996864774203 1.535000000000000
-0.086026910730141 -0.269965830423749 1.536000000000000
-0.086082917833481 -0.265929314909314 1.537000000000000
-0.086082917833481 -0.261717040390697 1.537000000000000
-0.086082917833481 -0.257504765872081 1.537000000000000
-0.086138924936821 -0.253457288029686 1.538000000000000
-0.086250939143501 -0.249566385117544 1.540000000000000
-0.086138924936821 -0.245027257828472 1.538000000000000
-0.086026910730141 -0.240499092867361 1.536000000000000
-0.085914896523462 -0.235981890234210 1.534000000000000
-0.085914896523462 -0.231777837461563 1.534000000000000
-0.085970903626801 -0.227722137873199 1.535000000000000
-0.085970903626801 -0.223515344518562 1.535000000000000
-0.085970903626801 -0.219308551163925 1.535000000000000
-0.086082917833481 -0.215382020685913 1.537000000000000
-0.086138924936821 -0.211307137023618 1.538000000000000
-0.086194932040161 -0.207226772197344 1.539000000000000
-0.086082917833481 -0.202745197130063 1.537000000000000
-0.086082917833481 -0.198532922611446 1.537000000000000
-0.086026910730141 -0.194194219564467 1.536000000000000
-0.085970903626801 -0.189860997681468 1.535000000000000
-0.085914896523462 -0.185533256962449 1.534000000000000
-0.085858889420122 -0.181210997407409 1.533000000000000
-0.085858889420122 -0.177009685216753 1.533000000000000
-0.085970903626801 -0.173033824262920 1.535000000000000
-0.085970903626801 -0.168827030908284 1.535000000000000
-0.086082917833481 -0.164834726462512 1.537000000000000
-0.086026910730141 -0.160517948071452 1.536000000000000
-0.086026910730141 -0.156308414134826 1.536000000000000
-0.085914896523462 -0.151900834781274 1.534000000000000
-0.085914896523462 -0.147696782008627 1.534000000000000
-0.085914896523462 -0.143492729235981 1.534000000000000
-0.085914896523462 -0.139288676463334 1.534000000000000
-0.085914896523462 -0.135084623690687 1.534000000000000
-0.085914896523462 -0.130880570918040 1.534000000000000
-0.085746875213442 -0.126428780495826 1.531000000000000
-0.085634861006762 -0.122073272200084 1.529000000000000
-0.085690868110102 -0.117960020389930 1.530000000000000
-0.085690868110102 -0.113766929945243 1.530000000000000
-0.085746875213442 -0.109645456389119 1.531000000000000
-0.085690868110102 -0.105380749055870 1.530000000000000
-0.085858889420122 -0.101386065784930 1.533000000000000
-0.086026910730141 -0.097374939022051 1.536000000000000
-0.085914896523462 -0.093044095964219 1.534000000000000
-0.085914896523462 -0.088840043191572 1.534000000000000
-0.085914896523462 -0.084635990418925 1.534000000000000
-0.086026910730141 -0.080536803275544 1.536000000000000
-0.085914896523462 -0.076227884873632 1.534000000000000
-0.085914896523462 -0.072023832100985 1.534000000000000
-0.085746875213442 -0.067687146122351 1.531000000000000
-0.085802882316782 -0.063532785582346 1.532000000000000
-0.085858889420122 -0.059372943878362 1.533000000000000
-0.085914896523462 -0.055207621010398 1.534000000000000
-0.085858889420122 -0.050970319497048 1.533000000000000
-0.085802882316782 -0.046738499147679 1.532000000000000
-0.085802882316782 -0.042539927539012 1.532000000000000
-0.085858889420122 -0.038366382925078 1.533000000000000
-0.085970903626801 -0.034209643559906 1.535000000000000
-0.085970903626801 -0.030002850205270 1.535000000000000
-0.085970903626801 -0.025796056850633 1.535000000000000
-0.085970903626801 -0.021589263495996 1.535000000000000
-0.085970903626801 -0.017382470141359 1.535000000000000
-0.085914896523462 -0.013167093283930 1.534000000000000
-0.085858889420122 -0.008957197590480 1.533000000000000
-0.085802882316782 -0.004752783061011 1.532000000000000
-0.085690868110102 -0.000553487938699 1.530000000000000
-0.085578853903422 0.003634844855654 1.528000000000000
-0.085690868110102 0.007832692950675 1.530000000000000
-0.085690868110102 0.012025783395362 1.530000000000000
-0.085690868110102 0.016218873840049 1.530000000000000
-0.085578853903422 0.020385281978481 1.528000000000000
-0.085578853903422 0.024572891259188 1.528000000000000
-0.085690868110102 0.028798145174109 1.530000000000000
-0.085690868110102 0.032991235618796 1.530000000000000
-0.085690868110102 0.037184326063483 1.530000000000000
-0.085578853903422 0.041323328382015 1.528000000000000
-0.085578853903422 0.045510937662722 1.528000000000000
-0.085634861006762 0.049731072170486 1.529000000000000
-0.085690868110102 0.053956687842230 1.530000000000000
-0.085802882316782 0.058225791068991 1.532000000000000
-0.085802882316782 0.062424362677658 1.532000000000000
-0.085746875213442 0.066579446731308 1.531000000000000
-0.085690868110102 0.070729049620977 1.530000000000000
-0.085690868110102 0.074922140065664 1.530000000000000
-0.085690868110102 0.079115230510351 1.530000000000000
-0.085634861006762 0.083253871072061 1.529000000000000
-0.085578853903422 0.087387030469791 1.528000000000000
-0.085522846800082 0.091514708703540 1.527000000000000
-0.085634861006762 0.095824920660151 1.529000000000000
-0.085690868110102 0.100080682733785 1.530000000000000
-0.085522846800082 0.104069314799691 1.527000000000000
-0.085466839696742 0.108183290123491 1.526000000000000
-0.085354825490062 0.112218150326403 1.524000000000000
-0.085522846800082 0.116623920895841 1.527000000000000
-0.085466839696742 0.120729674473671 1.526000000000000
-0.085410832593402 0.124829946887521 1.525000000000000
-0.085410832593402 0.129009334422258 1.525000000000000
-0.085298818386722 0.133014048223281 1.523000000000000
-0.085354825490062 0.137278032042885 1.524000000000000
-0.085354825490062 0.141454678995631 1.524000000000000
-0.085354825490062 0.145631325948378 1.524000000000000
-0.085354825490062 0.149807972901125 1.524000000000000
-0.085410832593402 0.154085659630679 1.525000000000000
-0.085466839696742 0.158368827524213 1.526000000000000
-0.085410832593402 0.162444434700153 1.525000000000000
-0.085298818386722 0.166405299189336 1.523000000000000
-0.085298818386722 0.170579205560093 1.523000000000000
-0.085298818386722 0.174753111930850 1.523000000000000
-0.085298818386722 0.178927018301607 1.523000000000000
-0.085298818386722 0.183100924672363 1.523000000000000
-0.085242811283382 0.187151866610393 1.522000000000000
-0.085186804180042 0.191197327384443 1.521000000000000
-0.085242811283382 0.195494198187927 1.522000000000000
-0.085242811283382 0.199665363976694 1.522000000000000
-0.085298818386722 0.203970456526148 1.523000000000000
-0.085186804180042 0.207871028211551 1.521000000000000
-0.085130797076702 0.211900045493661 1.520000000000000
-0.085130797076702 0.216065730118448 1.520000000000000
-0.085186804180042 0.220376303831882 1.521000000000000
-0.085298818386722 0.224839988379932 1.523000000000000
