# This PCD file was generated using the MATLAB® pcwrite function
# from Computer Vision System Toolbox®.
# .PCD v.7 - Point Cloud Data file format
VERSION .7
FIELDS x y z
SIZE 8 8 8
TYPE F F F
COUNT 1 1 1
WIDTH 860
HEIGHT 1
VIEWPOINT 0 0 0 1 0 0 0
POINTS 860
DATA ascii
-0.222689706987228 -0.485013160274716 1.716000000000000
-0.221521753978553 -0.477791211501674 1.707000000000000
-0.221132436308995 -0.472281556431324 1.704000000000000
-0.220613346082918 -0.466513924897091 1.700000000000000
-0.220483573526399 -0.461583256140274 1.699000000000000
-0.219834710743802 -0.455582313380069 1.694000000000000
-0.219315620517724 -0.449874974649617 1.690000000000000
-0.218536985178608 -0.443662645319360 1.684000000000000
-0.218147667509050 -0.438265354110599 1.681000000000000
-0.217888122396011 -0.433142482857660 1.679000000000000
-0.217888122396011 -0.428541045696464 1.679000000000000
-0.217888122396011 -0.423939608535269 1.679000000000000
-0.217628577282973 -0.418838661938249 1.677000000000000
-0.217628577282973 -0.414242705941034 1.677000000000000
-0.217628577282973 -0.409646749943818 1.677000000000000
-0.217109487056895 -0.404084662058835 1.673000000000000
-0.216720169387337 -0.398783291219723 1.670000000000000
-0.216590396830818 -0.393970467488476 1.669000000000000
-0.216720169387337 -0.389629747373152 1.670000000000000
-0.216720169387337 -0.385052975449867 1.670000000000000
-0.216201079161259 -0.379564883278613 1.666000000000000
-0.215941534048221 -0.374548894723283 1.664000000000000
-0.215422443822143 -0.369099170699890 1.660000000000000
-0.215552216378663 -0.364769412912526 1.661000000000000
-0.215681988935182 -0.360434173961182 1.662000000000000
-0.215811761491701 -0.356093453845859 1.663000000000000
-0.215552216378663 -0.351113092856399 1.661000000000000
-0.215422443822143 -0.346352340182961 1.660000000000000
-0.215033126152585 -0.341185257861359 1.657000000000000
-0.214903353596066 -0.336440948679862 1.656000000000000
-0.214773581039547 -0.331702120662344 1.655000000000000
-0.214643808483027 -0.326968773808806 1.654000000000000
-0.214254490813469 -0.321851021963024 1.651000000000000
-0.214254490813469 -0.317326321097548 1.651000000000000
-0.214124718256950 -0.312612158317940 1.650000000000000
-0.214384263369988 -0.308463640698739 1.652000000000000
-0.214254490813469 -0.303752218501121 1.651000000000000
-0.214254490813469 -0.299227517635645 1.651000000000000
-0.213994945700430 -0.294345817597825 1.649000000000000
-0.213605628030872 -0.289299320883783 1.646000000000000
-0.213735400587392 -0.284961341350449 1.647000000000000
-0.213735400587392 -0.280447602812933 1.647000000000000
-0.213735400587392 -0.275933864275418 1.647000000000000
-0.213605628030872 -0.271255329061680 1.646000000000000
-0.213475855474353 -0.266582275011922 1.645000000000000
-0.213605628030872 -0.262233333150628 1.646000000000000
-0.213346082917834 -0.257409185334598 1.644000000000000
-0.213605628030872 -0.253211337239576 1.646000000000000
-0.213475855474353 -0.248549245517778 1.645000000000000
-0.213735400587392 -0.244337694512807 1.647000000000000
-0.213346082917834 -0.239387118168414 1.644000000000000
-0.213346082917834 -0.234881601376868 1.644000000000000
-0.213086537804795 -0.230095821708698 1.642000000000000
-0.213475855474353 -0.226007958650099 1.645000000000000
-0.213216310361314 -0.221230400727899 1.643000000000000
-0.213216310361314 -0.216727624518343 1.643000000000000
-0.212956765248275 -0.211966510088082 1.641000000000000
-0.212826992691756 -0.207342786514144 1.640000000000000
-0.212956765248275 -0.202971919996931 1.641000000000000
-0.213086537804795 -0.198595572315737 1.642000000000000
-0.213216310361314 -0.194213743470563 1.643000000000000
-0.212956765248275 -0.189480034860203 1.641000000000000
-0.212697220135237 -0.184757288577802 1.639000000000000
-0.212437675022198 -0.180045504623362 1.637000000000000
-0.212437675022198 -0.175559171905746 1.637000000000000
-0.212567447578717 -0.171177343060572 1.638000000000000
-0.212437675022198 -0.166586506470514 1.637000000000000
-0.212437675022198 -0.162100173752898 1.637000000000000
-0.212307902465679 -0.157517558908810 1.636000000000000
-0.212437675022198 -0.153127508317666 1.637000000000000
-0.212437675022198 -0.148641175600050 1.637000000000000
-0.212437675022198 -0.144154842882435 1.637000000000000
-0.212437675022198 -0.139668510164819 1.637000000000000
-0.212307902465679 -0.135099598230680 1.636000000000000
-0.212307902465679 -0.130616006095054 1.636000000000000
-0.212178129909159 -0.126055315906886 1.635000000000000
-0.212048357352640 -0.121500106882698 1.634000000000000
-0.211788812239601 -0.116878762133927 1.632000000000000
-0.211918584796121 -0.112475008632833 1.633000000000000
-0.211918584796121 -0.107999638243177 1.633000000000000
-0.212178129909159 -0.103651058138706 1.635000000000000
-0.211918584796121 -0.099048897463865 1.633000000000000
-0.211788812239601 -0.094515613095597 1.632000000000000
-0.211399494570043 -0.089877463098064 1.629000000000000
-0.211269722013524 -0.085360622221735 1.628000000000000
-0.211269722013524 -0.080898954742029 1.628000000000000
-0.211399494570043 -0.076484238912976 1.629000000000000
-0.211529267126562 -0.072064041919942 1.630000000000000
-0.211269722013524 -0.067513952302911 1.628000000000000
-0.210880404343966 -0.062936095109157 1.625000000000000
-0.210880404343966 -0.058482649375421 1.625000000000000
-0.210880404343966 -0.054029203641685 1.625000000000000
-0.210880404343966 -0.049575757907949 1.625000000000000
-0.210491086674408 -0.045039009444046 1.622000000000000
-0.210491086674408 -0.040593785456280 1.622000000000000
-0.210750631787446 -0.036193134293999 1.624000000000000
-0.211010176900485 -0.031781520803758 1.626000000000000
-0.210750631787446 -0.027291723990507 1.624000000000000
-0.210491086674408 -0.022812889505215 1.622000000000000
-0.210231541561369 -0.018345017347884 1.620000000000000
-0.210361314117888 -0.013913858026891 1.621000000000000
-0.210231541561369 -0.009465531700312 1.620000000000000
-0.210361314117888 -0.005028891215339 1.621000000000000
-0.210231541561369 -0.000586046052740 1.620000000000000
-0.210231541561369 0.003853696771046 1.620000000000000
-0.209971996448330 0.008283200780518 1.618000000000000
-0.209971996448330 0.012717462440324 1.618000000000000
-0.209971996448330 0.017151724100130 1.618000000000000
-0.210101769004849 0.021599326913063 1.619000000000000
-0.210101769004849 0.026036329154859 1.619000000000000
-0.210231541561369 0.030492153713763 1.620000000000000
-0.210101769004849 0.034910333638451 1.619000000000000
-0.209971996448330 0.039323032399160 1.618000000000000
-0.209712451335291 0.043703205932812 1.616000000000000
-0.209582678778772 0.048102201783571 1.615000000000000
-0.209582678778772 0.052528241697407 1.615000000000000
-0.209452906222253 0.056919015802196 1.614000000000000
-0.209582678778772 0.061380321525079 1.615000000000000
-0.209452906222253 0.065765614465888 1.614000000000000
-0.209842223891811 0.070319376462786 1.617000000000000
-0.210231541561369 0.074889581951623 1.620000000000000
-0.210361314117888 0.079378293494406 1.621000000000000
-0.210491086674408 0.083872486201170 1.622000000000000
-0.210101769004849 0.088154360540004 1.619000000000000
-0.209971996448330 0.092534172316833 1.618000000000000
-0.209842223891811 0.096908502929682 1.617000000000000
-0.210231541561369 0.101528038894340 1.620000000000000
-0.210491086674408 0.106098606140000 1.622000000000000
-0.210750631787446 0.110680135713620 1.624000000000000
-0.210750631787446 0.115130840865366 1.624000000000000
-0.210750631787446 0.119581546017112 1.624000000000000
-0.210750631787446 0.124032251168858 1.624000000000000
-0.210880404343966 0.128562071441491 1.625000000000000
-0.210750631787446 0.132933661472350 1.624000000000000
-0.210491086674408 0.137215174054362 1.622000000000000
-0.210231541561369 0.141485724308414 1.620000000000000
-0.210620859230927 0.146195699478741 1.623000000000000
-0.211659039683082 0.151386208295194 1.631000000000000
-0.211918584796121 0.156047214746524 1.633000000000000
-0.211269722013524 0.160031089162094 1.628000000000000
-0.211269722013524 0.164492756641800 1.628000000000000
-0.211139949457004 0.168850643762709 1.627000000000000
-0.210620859230927 0.172883486897277 1.623000000000000
-0.210491086674408 0.177222189944257 1.622000000000000
-0.210620859230927 0.181779416036790 1.623000000000000
-0.211529267126562 0.187030579413844 1.630000000000000
-0.212178129909159 0.192085144401265 1.635000000000000
-0.211659039683082 0.196085100551953 1.631000000000000
-0.212048357352640 0.200923883075810 1.634000000000000
-0.212178129909159 0.205527699062173 1.635000000000000
-0.212826992691756 0.210650778599343 1.640000000000000
-0.212048357352640 0.214358215990748 1.634000000000000
-0.212567447578717 0.219372034005141 1.638000000000000
-0.211659039683082 0.222904435906009 1.631000000000000
-0.211010176900485 0.226677285508351 1.626000000000000
-0.208804043439656 0.228716947210910 1.609000000000000
-0.210231541561369 0.234720323607921 1.620000000000000
-0.211659039683082 0.240783992808713 1.631000000000000
-0.212048357352640 0.245704992792269 1.634000000000000
-0.211139949457004 0.249111327921597 1.627000000000000
-0.209971996448330 0.252167592069852 1.618000000000000
-0.209323133665733 0.255808893736674 1.613000000000000
-0.209582678778772 0.260552117647704 1.615000000000000
-0.211010176900485 0.266782962349885 1.626000000000000
-0.211529267126562 0.271906403643878 1.630000000000000
-0.210101769004849 0.274508454695439 1.619000000000000
-0.210620859230927 0.279634636571422 1.623000000000000
-0.211399494570043 0.285132814084399 1.629000000000000
-0.212567447578717 0.291197206798836 1.638000000000000
-0.211788812239601 0.294603180171341 1.632000000000000
-0.211269722013524 0.298342781032980 1.628000000000000
-0.210750631787446 0.302060457238699 1.624000000000000
-0.210620859230927 0.306322423989958 1.623000000000000
-0.211269722013524 0.311727783472098 1.628000000000000
-0.209712451335291 0.313858816178204 1.616000000000000
-0.210880404343966 0.320060237992140 1.625000000000000
-0.210101769004849 0.323315479355196 1.619000000000000
-0.211918584796121 0.330586659943105 1.633000000000000
-0.211788812239601 0.334856848440335 1.632000000000000
-0.212956765248275 0.341200780517751 1.641000000000000
-0.213086537804795 0.345908738619733 1.642000000000000
-0.212697220135237 0.349768563332109 1.639000000000000
-0.212437675022198 0.353828088772932 1.637000000000000
-0.212048357352640 0.357657767083418 1.634000000000000
-0.212567447578717 0.363022379592530 1.638000000000000
-0.212307902465679 0.367062720959423 1.636000000000000
-0.212048357352640 0.371092099998356 1.634000000000000
-0.211659039683082 0.374880669578992 1.631000000000000
-0.211918584796121 0.379815734229321 1.633000000000000
-0.211529267126562 0.383585119736027 1.630000000000000
-0.211269722013524 0.387576130627100 1.628000000000000
-0.210750631787446 0.391074560273620 1.624000000000000
-0.210361314117888 0.394794615304506 1.621000000000000
-0.210750631787446 0.399975970577112 1.624000000000000
-0.211529267126562 0.405920862954457 1.630000000000000
-0.212178129909159 0.411646870529426 1.635000000000000
-0.212178129909159 0.416127722083062 1.635000000000000
-0.212048357352640 0.420351320686461 1.634000000000000
-0.211918584796121 0.424569438125880 1.633000000000000
-0.212567447578717 0.430358479086619 1.638000000000000
-0.212826992691756 0.435378501778638 1.640000000000000
-0.213086537804795 0.440409486798617 1.642000000000000
-0.212956765248275 0.444638566565996 1.641000000000000
-0.213086537804795 0.449409558053748 1.642000000000000
-0.212697220135237 0.453080282608815 1.639000000000000
-0.212437675022198 0.457013741278098 1.637000000000000
-0.212048357352640 0.460654319431274 1.634000000000000
-0.211918584796121 0.464847771632784 1.633000000000000
-0.211918584796121 0.469323142022440 1.633000000000000
-0.211918584796121 0.473798512412096 1.633000000000000
-0.212048357352640 0.478566763317858 1.634000000000000
-0.212048357352640 0.483044874289504 1.634000000000000
-0.211918584796121 0.487224623581064 1.633000000000000
-0.211788812239601 0.491398891708643 1.632000000000000
-0.211659039683082 0.495567678672243 1.631000000000000
-0.211788812239601 0.500344151323975 1.632000000000000
-0.211788812239601 0.504816781131641 1.632000000000000
-0.211788812239601 0.509289410939307 1.632000000000000
-0.211659039683082 0.513447235574947 1.631000000000000
-0.211529267126562 0.517599579046606 1.630000000000000
-0.211399494570043 0.521746441354286 1.629000000000000
-0.211399494570043 0.526210849415982 1.629000000000000
-0.211529267126562 0.531001024977664 1.630000000000000
-0.211659039683082 0.535796681703327 1.631000000000000
-0.211659039683082 0.540266570929002 1.631000000000000
-0.211788812239601 0.545070449400635 1.632000000000000
-0.211788812239601 0.549543079208301 1.632000000000000
-0.211788812239601 0.554015709015967 1.632000000000000
-0.211529267126562 0.557803916839780 1.630000000000000
-0.211399494570043 0.561926113909550 1.629000000000000
-0.211139949457004 0.565695137659433 1.627000000000000
-0.211269722013524 0.570504497295046 1.628000000000000
-0.211269722013524 0.574966164774752 1.628000000000000
-0.211399494570043 0.579783746156334 1.629000000000000
-0.211269722013524 0.583889499734164 1.628000000000000
-0.211269722013524 0.588351167213869 1.628000000000000
-0.211010176900485 0.592084563397883 1.626000000000000
-0.210750631787446 0.595806997253937 1.624000000000000
-0.210620859230927 0.599888085593857 1.623000000000000
-0.210750631787446 0.604708407557429 1.624000000000000
-0.211139949457004 0.610284406636593 1.627000000000000
-0.211139949457004 0.614743333534309 1.627000000000000
-0.211010176900485 0.618821681292239 1.626000000000000
-0.210750631787446 0.622511228164413 1.624000000000000
-0.210880404343966 0.627347993619925 1.625000000000000
-0.210750631787446 0.631412638467905 1.624000000000000
-0.210880404343966 0.636254885087397 1.625000000000000
-0.210750631787446 0.640314048771397 1.624000000000000
-0.210880404343966 0.645161776554869 1.625000000000000
-0.210750631787446 0.649215459074889 1.624000000000000
-0.210880404343966 0.654068668022341 1.625000000000000
-0.211010176900485 0.658927358133773 1.626000000000000
-0.211139949457004 0.663791529409185 1.627000000000000
-0.211139949457004 0.668250456306901 1.627000000000000
-0.211010176900485 0.672295917080951 1.626000000000000
-0.211010176900485 0.676752103396677 1.626000000000000
-0.211139949457004 0.681627237000049 1.627000000000000
-0.211269722013524 0.686507851767401 1.628000000000000
-0.211269722013524 0.690969519247107 1.628000000000000
-0.211399494570043 0.695858355760429 1.629000000000000
-0.211399494570043 0.700322763822125 1.629000000000000
-0.211788812239601 0.706085122476609 1.632000000000000
-0.211659039683082 0.710122361504689 1.631000000000000
-0.211788812239601 0.715030382091941 1.632000000000000
-0.211529267126562 0.718621268012475 1.630000000000000
-0.211399494570043 0.722644804130605 1.629000000000000
-0.211269722013524 0.726662859084755 1.628000000000000
-0.211399494570043 0.731573620253997 1.629000000000000
-0.211399494570043 0.736038028315693 1.629000000000000
-0.211269722013524 0.740047861523873 1.628000000000000
-0.211399494570043 0.744966844439085 1.629000000000000
-0.211399494570043 0.749431252500781 1.629000000000000
-0.211659039683082 0.754821253761449 1.631000000000000
-0.211788812239601 0.759756680168601 1.632000000000000
-0.212048357352640 0.765165865503198 1.634000000000000
-0.212178129909159 0.770114994820300 1.635000000000000
-0.212178129909159 0.774595846373936 1.635000000000000
-0.212567447578717 0.780506196455879 1.638000000000000
-0.212697220135237 0.785474509846911 1.639000000000000
-0.212826992691756 0.790448304401923 1.640000000000000
-0.212956765248275 0.795427580120914 1.641000000000000
-0.213086537804795 0.800412337003886 1.642000000000000
-0.213605628030872 0.806873182308995 1.646000000000000
-0.213865173143911 0.812370066267272 1.648000000000000
-0.213735400587392 0.816390861803412 1.647000000000000
-0.213475855474353 0.819907752010217 1.645000000000000
-0.213346082917834 0.823914844636407 1.644000000000000
-0.213475855474353 0.828924266757288 1.645000000000000
-0.213475855474353 0.833432524130824 1.645000000000000
-0.213346082917834 0.837431395011045 1.644000000000000
-0.213475855474353 0.842449038877896 1.645000000000000
-0.213605628030872 0.847472163908728 1.646000000000000
-0.213735400587392 0.852500770103539 1.647000000000000
-0.213735400587392 0.857014508641055 1.647000000000000
-0.213735400587392 0.861528247178571 1.647000000000000
-0.213735400587392 0.866041985716087 1.647000000000000
-0.213605628030872 0.870027153686357 1.646000000000000
-0.213346082917834 0.873475529343411 1.644000000000000
-0.213216310361314 0.877446994403731 1.643000000000000
-0.213086537804795 0.881412978300072 1.642000000000000
-0.213475855474353 0.887531612613254 1.645000000000000
-0.213735400587392 0.893124416941182 1.647000000000000
-0.213865173143911 0.898183169537883 1.648000000000000
-0.213605628030872 0.901604139375038 1.646000000000000
-0.213216310361314 0.904463651661067 1.643000000000000
-0.213086537804795 0.908413192065467 1.642000000000000
-0.212956765248275 0.912357251305887 1.641000000000000
-0.212956765248275 0.916854546351463 1.641000000000000
-0.213346082917834 0.923036214050416 1.644000000000000
-0.213865173143911 0.929798523374424 1.648000000000000
-0.213865173143911 0.934315002493930 1.648000000000000
-0.213735400587392 0.938261802316340 1.647000000000000
-0.213735400587392 0.942775540853856 1.647000000000000
-0.213735400587392 0.947289279391372 1.647000000000000
-0.213475855474353 0.950647215842756 1.645000000000000
-0.213216310361314 0.953994189966181 1.643000000000000
-0.213605628030872 0.960247112796874 1.646000000000000
-0.213865173143911 0.965930356330470 1.648000000000000
-0.214514035926508 0.973391152305103 1.653000000000000
-0.214903353596066 0.979696146193606 1.656000000000000
-0.215033126152585 0.984828894504037 1.657000000000000
-0.215292671265624 0.990564209095444 1.659000000000000
-0.215422443822143 0.995710660315825 1.660000000000000
-0.215941534048221 1.002670291543112 1.664000000000000
-0.216201079161259 1.008441233700389 1.666000000000000
-0.216720169387337 1.015439233075536 1.670000000000000
-0.216849941943856 1.020626793025767 1.671000000000000
-0.217369032169934 1.027660419966784 1.675000000000000
-0.217239259613414 1.031634625609094 1.674000000000000
-0.217758349839492 1.038698398952001 1.678000000000000
-0.217888122396011 1.043918845886112 1.679000000000000
-0.218407212622089 1.051018246794889 1.683000000000000
-0.218926302848166 1.058139572359586 1.687000000000000
-0.219964483300321 1.067802710983705 1.695000000000000
-0.221132436308995 1.078142411602528 1.704000000000000
-0.222559934430708 1.089802349226882 1.715000000000000
-0.227361519021925 1.118115619672994 1.752000000000000
-0.272247797281607 -0.899354527167389 2.143000000000000
-0.273010040297794 -0.895983041278646 2.149000000000000
-0.274534526330169 -0.895063806229891 2.161000000000000
-0.275931971859846 -0.893667348158055 2.172000000000000
-0.276821255378731 -0.890575763389113 2.179000000000000
-0.276821255378731 -0.884604035232922 2.179000000000000
-0.276313093367939 -0.877019397839325 2.175000000000000
-0.276186052865241 -0.870658145283732 2.174000000000000
-0.276440133870637 -0.865495612328234 2.176000000000000
-0.276694214876033 -0.860322117044776 2.178000000000000
-0.276694214876033 -0.854353129470574 2.178000000000000
-0.275931971859846 -0.846046995499964 2.172000000000000
-0.276440133870637 -0.841641586687349 2.176000000000000
-0.269071784714159 -0.813403572622682 2.118000000000000
-0.271358513762721 -0.814462467729647 2.136000000000000
-0.272120756778909 -0.810879957027674 2.142000000000000
-0.267166177173690 -0.790352592316504 2.103000000000000
-0.256875896455160 -0.748828138103408 2.022000000000000
-0.261576395054983 -0.756887871828462 2.059000000000000
-0.261068233044191 -0.744153680875671 2.055000000000000
-0.245315210709651 -0.678082721726786 1.931000000000000
-0.243155522163787 -0.666867591521736 1.914000000000000
-0.234135646472236 -0.637079186376019 1.843000000000000
-0.232738200942559 -0.628256014207177 1.832000000000000
-0.231721876920975 -0.620513716612860 1.824000000000000
-0.231467795915580 -0.614839988379932 1.822000000000000
-0.230197390888601 -0.606499520398152 1.812000000000000
-0.228418823850830 -0.596885975345724 1.798000000000000
-0.226132094802268 -0.586032240206530 1.780000000000000
-0.225115770780684 -0.578542076155292 1.772000000000000
-0.224353527764497 -0.571743262279178 1.766000000000000
-0.224099446759101 -0.566261374785550 1.764000000000000
-0.224099446759101 -0.561426988155205 1.764000000000000
-0.222702001229424 -0.553121785982471 1.753000000000000
-0.221431596202445 -0.545189664717199 1.743000000000000
-0.220923434191654 -0.539172640221878 1.739000000000000
-0.221685677207841 -0.536250609779493 1.745000000000000
-0.221431596202445 -0.530859161491534 1.743000000000000
-0.221177515197049 -0.525478675531536 1.741000000000000
-0.220161191175466 -0.518314640737107 1.733000000000000
-0.219780069667372 -0.512676178313227 1.730000000000000
-0.218636705143091 -0.505292535202776 1.721000000000000
-0.218636705143091 -0.500575993598000 1.721000000000000
-0.218763745645789 -0.496147574858997 1.722000000000000
-0.218509664640393 -0.490857528104668 1.720000000000000
-0.218382624137696 -0.485861085380091 1.719000000000000
-0.217747421624206 -0.479750519340287 1.714000000000000
-0.217366300116112 -0.474221680196006 1.711000000000000
-0.216477016597227 -0.467611604720378 1.704000000000000
-0.215841814083737 -0.461583256140274 1.699000000000000
-0.215206611570248 -0.455582313380069 1.694000000000000
-0.215206611570248 -0.450939767489024 1.694000000000000
-0.214825490062154 -0.445506848714393 1.691000000000000
-0.214571409056758 -0.440351090477574 1.689000000000000
-0.213936206543269 -0.434432365177069 1.684000000000000
-0.214063247045967 -0.430072460987815 1.685000000000000
-0.213809166040571 -0.424949589734876 1.683000000000000
-0.213555085035175 -0.419837680809897 1.681000000000000
-0.213301004029779 -0.414736734212877 1.679000000000000
-0.213173963527082 -0.409891023497750 1.678000000000000
-0.212919882521686 -0.404809260974661 1.676000000000000
-0.212538761013592 -0.399499668389579 1.673000000000000
-0.212411720510894 -0.394678622912362 1.672000000000000
-0.212284680008196 -0.389863058599124 1.671000000000000
-0.212157639505498 -0.385052975449867 1.670000000000000
-0.211649477494707 -0.379564883278613 1.666000000000000
-0.211395396489311 -0.374548894723283 1.664000000000000
-0.211268355986613 -0.369766217393926 1.663000000000000
-0.211649477494707 -0.365867454492636 1.666000000000000
-0.211522436992009 -0.361084777163278 1.665000000000000
-0.211268355986613 -0.356093453845859 1.663000000000000
-0.211141315483915 -0.351324479426451 1.662000000000000
-0.211014274981217 -0.346560986171023 1.661000000000000
-0.210887234478519 -0.341802974079576 1.660000000000000
-0.210379072467728 -0.336440948679862 1.656000000000000
-0.210252031965030 -0.331702120662344 1.655000000000000
-0.210252031965030 -0.327166457468908 1.655000000000000
-0.209997950959634 -0.322240908119248 1.653000000000000
-0.209997950959634 -0.317710726089792 1.653000000000000
-0.209743869954238 -0.312801620232073 1.651000000000000
-0.209870910456936 -0.308463640698739 1.652000000000000
-0.209870910456936 -0.303936199251273 1.652000000000000
-0.209870910456936 -0.299408757803807 1.652000000000000
-0.209489788948842 -0.294345817597825 1.649000000000000
-0.209362748446144 -0.289650838892147 1.648000000000000
-0.209743869954238 -0.285653415039218 1.651000000000000
-0.209489788948842 -0.280788158493338 1.649000000000000
-0.209489788948842 -0.276268938791842 1.649000000000000
-0.209235707943446 -0.271420125737902 1.647000000000000
-0.209235707943446 -0.266906387200386 1.647000000000000
-0.209235707943446 -0.262392648662870 1.647000000000000
-0.208981626938051 -0.257565760264850 1.645000000000000
-0.209108667440749 -0.253211337239576 1.646000000000000
-0.208981626938051 -0.248549245517778 1.645000000000000
-0.208981626938051 -0.244040988144242 1.645000000000000
-0.208854586435353 -0.239387118168414 1.644000000000000
-0.209108667440749 -0.235167345417473 1.646000000000000
-0.208981626938051 -0.230516216023635 1.645000000000000
-0.209108667440749 -0.226145349506421 1.646000000000000
-0.208727545932655 -0.221230400727899 1.643000000000000
-0.208727545932655 -0.216727624518343 1.643000000000000
-0.208727545932655 -0.212224848308787 1.643000000000000
-0.208727545932655 -0.207722072099231 1.643000000000000
-0.208854586435353 -0.203342983836047 1.644000000000000
-0.208600505429957 -0.198595572315737 1.642000000000000
-0.208727545932655 -0.194213743470563 1.643000000000000
-0.208473464927259 -0.189480034860203 1.641000000000000
-0.208600505429957 -0.185095465433039 1.642000000000000
-0.208219383921863 -0.180265474696207 1.639000000000000
-0.208219383921863 -0.175773660814611 1.639000000000000
-0.208219383921863 -0.171281846933015 1.639000000000000
-0.208092343419165 -0.166688269760966 1.638000000000000
-0.207965302916467 -0.162100173752898 1.637000000000000
-0.207711221911072 -0.157421276782338 1.635000000000000
-0.207838262413770 -0.153033966773184 1.636000000000000
-0.207965302916467 -0.148641175600050 1.637000000000000
-0.208219383921863 -0.144330963643439 1.639000000000000
-0.208219383921863 -0.139839149761843 1.639000000000000
-0.208092343419165 -0.135264756663725 1.638000000000000
-0.208092343419165 -0.130775683364119 1.638000000000000
-0.207711221911072 -0.126055315906886 1.635000000000000
-0.207584181408374 -0.121500106882698 1.634000000000000
-0.207330100402978 -0.116878762133927 1.632000000000000
-0.207457140905676 -0.112475008632833 1.633000000000000
-0.207203059900280 -0.107867366794012 1.631000000000000
-0.207330100402978 -0.103460872710929 1.632000000000000
-0.207076019397582 -0.098866933782058 1.630000000000000
-0.207330100402978 -0.094515613095597 1.632000000000000
-0.206948978894884 -0.089877463098064 1.629000000000000
-0.206948978894884 -0.085413055036368 1.629000000000000
-0.207076019397582 -0.080998339207314 1.630000000000000
-0.207203059900280 -0.076578142214281 1.631000000000000
-0.207076019397582 -0.072064041919942 1.630000000000000
-0.206821938392186 -0.067513952302911 1.628000000000000
-0.206567857386791 -0.062974825013840 1.626000000000000
-0.206821938392186 -0.058590617343499 1.628000000000000
-0.206948978894884 -0.054162198604496 1.629000000000000
-0.206694897889488 -0.049636774225375 1.627000000000000
-0.206186735878697 -0.045066777020768 1.623000000000000
-0.206186735878697 -0.040618812451012 1.623000000000000
-0.206313776381395 -0.036193134293999 1.624000000000000
-0.206694897889488 -0.031801066634511 1.627000000000000
-0.206313776381395 -0.027291723990507 1.624000000000000
-0.206059695375999 -0.022812889505215 1.622000000000000
-0.205805614370603 -0.018345017347884 1.620000000000000
-0.205805614370603 -0.013905274524098 1.620000000000000
-0.205805614370603 -0.009465531700312 1.620000000000000
-0.206059695375999 -0.005031993554151 1.622000000000000
-0.206186735878697 -0.000587131323208 1.623000000000000
-0.206186735878697 0.003860833246548 1.623000000000000
-0.206059695375999 0.008303678409147 1.622000000000000
-0.205678573867905 0.012725322429471 1.619000000000000
-0.205678573867905 0.017162324671267 1.619000000000000
-0.205678573867905 0.021599326913063 1.619000000000000
-0.205805614370603 0.026052410889977 1.620000000000000
-0.205932654873301 0.030510976030870 1.621000000000000
-0.205678573867905 0.034910333638451 1.619000000000000
-0.205678573867905 0.039347335880248 1.619000000000000
-0.205678573867905 0.043784338122044 1.619000000000000
-0.205551533365207 0.048191555718772 1.618000000000000
-0.205297452359812 0.052560766924464 1.616000000000000
-0.205043371354416 0.056919015802196 1.614000000000000
-0.205043371354416 0.061342315134042 1.614000000000000
-0.205043371354416 0.065765614465888 1.614000000000000
-0.205424492862509 0.070319376462786 1.617000000000000
-0.205932654873301 0.074935810088630 1.621000000000000
-0.206059695375999 0.079427262213404 1.622000000000000
-0.206059695375999 0.083872486201170 1.622000000000000
-0.205932654873301 0.088263260305959 1.621000000000000
-0.205932654873301 0.092705743711735 1.621000000000000
-0.205678573867905 0.097028365023596 1.619000000000000
-0.205932654873301 0.101590710523287 1.621000000000000
-0.206059695375999 0.106098606140000 1.622000000000000
-0.206440816884093 0.110748288506547 1.625000000000000
-0.206313776381395 0.115130840865366 1.624000000000000
-0.206313776381395 0.119581546017112 1.624000000000000
-0.206313776381395 0.124032251168858 1.624000000000000
-0.206567857386791 0.128641186562378 1.626000000000000
-0.206694897889488 0.133179228580981 1.627000000000000
-0.206440816884093 0.137468962908963 1.625000000000000
-0.206567857386791 0.142009745509556 1.626000000000000
-0.206694897889488 0.146556009274129 1.627000000000000
-0.207076019397582 0.151293390264357 1.630000000000000
-0.206567857386791 0.155378304456734 1.626000000000000
-0.206948978894884 0.160129388356911 1.629000000000000
-0.207457140905676 0.164997955525835 1.633000000000000
-0.207838262413770 0.169784666991882 1.636000000000000
-0.206440816884093 0.173096528778851 1.625000000000000
-0.205932654873301 0.177112928421480 1.621000000000000
-0.205932654873301 0.181555411827256 1.621000000000000
-0.207203059900280 0.187145322100601 1.631000000000000
-0.207711221911072 0.192085144401265 1.635000000000000
-0.207838262413770 0.196686219805638 1.636000000000000
-0.207203059900280 0.200554989777629 1.631000000000000
-0.207584181408374 0.205401994047456 1.634000000000000
-0.207838262413770 0.210136996212516 1.636000000000000
-0.206948978894884 0.213702285097263 1.629000000000000
-0.207076019397582 0.218300619919646 1.630000000000000
-0.206694897889488 0.222357766535301 1.627000000000000
-0.206694897889488 0.226816693433017 1.627000000000000
-0.204662249846322 0.229001244224223 1.611000000000000
-0.206059695375999 0.235010101785215 1.622000000000000
-0.207076019397582 0.240636363138076 1.630000000000000
-0.206821938392186 0.244802771276508 1.628000000000000
-0.206313776381395 0.248651995417747 1.624000000000000
-0.206186735878697 0.252946849152886 1.623000000000000
-0.206948978894884 0.258346365714223 1.629000000000000
-0.206821938392186 0.262649441195332 1.628000000000000
-0.206948978894884 0.267275181837615 1.629000000000000
-0.206440816884093 0.271072334921044 1.625000000000000
-0.204535209343624 0.272982465756428 1.610000000000000
-0.204408168840926 0.277222507851767 1.609000000000000
-0.205805614370603 0.283557494669568 1.620000000000000
-0.208219383921863 0.291374982871362 1.639000000000000
-0.207711221911072 0.295144730134891 1.635000000000000
-0.207203059900280 0.298892552742500 1.631000000000000
-0.207838262413770 0.304292431060660 1.636000000000000
-0.207965302916467 0.308964761596773 1.637000000000000
-0.206694897889488 0.311536304489621 1.627000000000000
-0.205297452359812 0.313858816178204 1.616000000000000
-0.205043371354416 0.317893676381116 1.614000000000000
-0.205678573867905 0.323315479355196 1.619000000000000
-0.207203059900280 0.330181777322232 1.631000000000000
-0.207838262413770 0.335677576010042 1.636000000000000
-0.208473464927259 0.341200780517751 1.641000000000000
-0.208854586435353 0.346330064732547 1.644000000000000
-0.207838262413770 0.349128352416919 1.636000000000000
-0.207584181408374 0.353179656111772 1.634000000000000
-0.207457140905676 0.357438882281041 1.633000000000000
-0.208981626938051 0.364573757283097 1.645000000000000
-0.208727545932655 0.368633282723919 1.643000000000000
-0.207838262413770 0.371546313095049 1.636000000000000
-0.206821938392186 0.374191128187982 1.628000000000000
-0.207330100402978 0.379583146516994 1.632000000000000
-0.207711221911072 0.384761761207610 1.635000000000000
-0.207457140905676 0.388766475008633 1.633000000000000
-0.207076019397582 0.392519417023399 1.630000000000000
-0.206440816884093 0.395768815465652 1.625000000000000
-0.206059695375999 0.399483389332559 1.622000000000000
-0.206440816884093 0.404675706933124 1.625000000000000
-0.207076019397582 0.410388011598143 1.630000000000000
-0.207076019397582 0.414855160241829 1.630000000000000
-0.206948978894884 0.419065055935278 1.629000000000000
-0.207711221911072 0.425089425190333 1.635000000000000
-0.208727545932655 0.431672149657701 1.643000000000000
-0.208600505429957 0.435909451171051 1.642000000000000
-0.208727545932655 0.440677702076813 1.643000000000000
-0.208219383921863 0.444096654845623 1.639000000000000
-0.208600505429957 0.449409558053748 1.642000000000000
-0.208346424424561 0.453356719632981 1.640000000000000
-0.208092343419165 0.457292918884254 1.638000000000000
-0.207838262413770 0.461218155807567 1.636000000000000
-0.207584181408374 0.465132430402920 1.634000000000000
-0.207457140905676 0.469323142022440 1.633000000000000
-0.207330100402978 0.473508372477979 1.632000000000000
-0.207584181408374 0.478566763317858 1.634000000000000
-0.207584181408374 0.483044874289504 1.634000000000000
-0.207711221911072 0.487821346941236 1.635000000000000
-0.207457140905676 0.491699993970720 1.633000000000000
-0.207457140905676 0.496175364360376 1.633000000000000
-0.207330100402978 0.500344151323975 1.632000000000000
-0.207457140905676 0.505126105139687 1.633000000000000
-0.207584181408374 0.509913540119380 1.634000000000000
-0.207457140905676 0.514076845918999 1.633000000000000
-0.207203059900280 0.517917124800623 1.631000000000000
-0.206948978894884 0.521746441354286 1.629000000000000
-0.206821938392186 0.525887822497986 1.628000000000000
-0.207203059900280 0.531326792477650 1.631000000000000
-0.207203059900280 0.535796681703327 1.631000000000000
-0.207330100402978 0.540597819592969 1.632000000000000
-0.207203059900280 0.544736460154678 1.631000000000000
-0.207457140905676 0.549879809036247 1.633000000000000
-0.207457140905676 0.554355179425903 1.633000000000000
-0.207330100402978 0.558488338823633 1.632000000000000
-0.207203059900280 0.562616017057382 1.631000000000000
-0.206948978894884 0.566390521971246 1.629000000000000
-0.207076019397582 0.571205362770838 1.630000000000000
-0.206821938392186 0.574966164774752 1.628000000000000
-0.207076019397582 0.580139660058210 1.630000000000000
-0.206948978894884 0.584248154218030 1.629000000000000
-0.206948978894884 0.588712562279726 1.629000000000000
-0.206440816884093 0.591720427750037 1.625000000000000
-0.206186735878697 0.595440121024101 1.623000000000000
-0.206059695375999 0.599518468782031 1.622000000000000
-0.206186735878697 0.604336050163613 1.623000000000000
-0.206694897889488 0.610284406636593 1.627000000000000
-0.206694897889488 0.614743333534309 1.627000000000000
-0.206694897889488 0.619202260432025 1.627000000000000
-0.206313776381395 0.622511228164413 1.624000000000000
-0.206440816884093 0.627347993619925 1.625000000000000
-0.206440816884093 0.631801439353661 1.625000000000000
-0.206567857386791 0.636646426555143 1.626000000000000
-0.206440816884093 0.640708330821133 1.625000000000000
-0.206694897889488 0.645955821818321 1.627000000000000
-0.206567857386791 0.650014985502321 1.626000000000000
-0.206567857386791 0.654471171818047 1.626000000000000
-0.206694897889488 0.659332602511469 1.627000000000000
-0.206694897889488 0.663791529409185 1.627000000000000
-0.206694897889488 0.668250456306901 1.627000000000000
-0.206567857386791 0.672295917080951 1.626000000000000
-0.206567857386791 0.676752103396677 1.626000000000000
-0.206821938392186 0.682046184287695 1.628000000000000
-0.207076019397582 0.687351227506673 1.630000000000000
-0.207203059900280 0.692242804601985 1.631000000000000
-0.207203059900280 0.696712693827661 1.631000000000000
-0.207203059900280 0.701182583053337 1.631000000000000
-0.207584181408374 0.706950422871801 1.634000000000000
-0.207584181408374 0.711428533843447 1.634000000000000
-0.207584181408374 0.715906644815093 1.634000000000000
-0.207457140905676 0.719943883843173 1.633000000000000
-0.207457140905676 0.724419254232829 1.633000000000000
-0.207584181408374 0.729340977730031 1.634000000000000
-0.207584181408374 0.733819088701677 1.634000000000000
-0.207457140905676 0.737845365401797 1.633000000000000
-0.207457140905676 0.742320735791453 1.633000000000000
-0.207457140905676 0.746796106181109 1.633000000000000
-0.207584181408374 0.751731532588260 1.634000000000000
-0.207584181408374 0.756209643559906 1.634000000000000
-0.207838262413770 0.761618828894504 1.636000000000000
-0.207965302916467 0.766570698793596 1.637000000000000
-0.208092343419165 0.771528049856668 1.638000000000000
-0.208346424424561 0.776964641011165 1.640000000000000
-0.208473464927259 0.781935694984187 1.641000000000000
-0.208727545932655 0.787391470212614 1.643000000000000
-0.208981626938051 0.792858207769002 1.645000000000000
-0.209235707943446 0.798335907653349 1.647000000000000
-0.209235707943446 0.802849646190865 1.647000000000000
-0.209616829451540 0.808833991986538 1.650000000000000
-0.209870910456936 0.814341838272776 1.652000000000000
-0.209870910456936 0.818869279720241 1.652000000000000
-0.209489788948842 0.821901448671640 1.649000000000000
-0.209235707943446 0.825418338878444 1.647000000000000
-0.209362748446144 0.830435982745296 1.648000000000000
-0.209362748446144 0.834952461864802 1.648000000000000
-0.209108667440749 0.838450167997676 1.646000000000000
-0.209235707943446 0.843473293028507 1.647000000000000
-0.209235707943446 0.847987031566023 1.647000000000000
-0.209489788948842 0.853535986582111 1.649000000000000
-0.209489788948842 0.858055206283606 1.649000000000000
-0.209616829451540 0.863097515388368 1.650000000000000
-0.209489788948842 0.867093645686598 1.649000000000000
-0.209616829451540 0.872141435955340 1.650000000000000
-0.209362748446144 0.875600773940354 1.648000000000000
-0.209362748446144 0.880117253059860 1.648000000000000
-0.208981626938051 0.883023355239719 1.645000000000000
-0.209235707943446 0.888610678403666 1.647000000000000
-0.209362748446144 0.893666690418377 1.648000000000000
-0.209616829451540 0.899273197656254 1.650000000000000
-0.209616829451540 0.903795157939740 1.650000000000000
-0.209489788948842 0.907766623000060 1.649000000000000
-0.209235707943446 0.911179371091245 1.647000000000000
-0.209108667440749 0.915137133241615 1.646000000000000
-0.209108667440749 0.919648131197141 1.646000000000000
-0.209489788948842 0.925843501806043 1.649000000000000
-0.209616829451540 0.930926919640655 1.650000000000000
-0.209870910456936 0.936582757354352 1.652000000000000
-0.209870910456936 0.941110198801818 1.652000000000000
-0.209997950959634 0.946210060128369 1.653000000000000
-0.209870910456936 0.950165081696749 1.652000000000000
-0.209743869954238 0.954114622101149 1.651000000000000
-0.209489788948842 0.957478039716514 1.649000000000000
-0.209743869954238 0.963164023832101 1.651000000000000
-0.209743869954238 0.967688724697577 1.651000000000000
-0.210506112970426 0.975746605789205 1.657000000000000
-0.210760193975821 0.981470958052652 1.659000000000000
-0.211014274981217 0.987206272644059 1.661000000000000
-0.211268355986613 0.992952549563425 1.663000000000000
-0.211649477494707 0.999309614509737 1.666000000000000
-0.212284680008196 1.006888255509940 1.671000000000000
-0.212411720510894 1.012073074878181 1.672000000000000
-0.212919882521686 1.019087517745268 1.676000000000000
-0.213428044532477 1.026123885268276 1.680000000000000
-0.213936206543269 1.033182177447203 1.684000000000000
-0.213809166040571 1.037181048327423 1.683000000000000
-0.214063247045967 1.043031467362409 1.685000000000000
-0.214190287548665 1.048271098370450 1.686000000000000
-0.215079571067550 1.057263156163843 1.693000000000000
-0.215841814083737 1.065666350586211 1.699000000000000
-0.217239259613414 1.077252292496835 1.710000000000000
-0.218001502629602 1.085734963796912 1.716000000000000
-0.220542312683560 1.103146867788844 1.736000000000000
-0.221177515197049 1.111095487357695 1.741000000000000
-0.267636090430982 -0.897650762155851 2.153000000000000
-0.269003483368622 -0.896306375141825 2.164000000000000
-0.269997950959634 -0.893667348158055 2.172000000000000
-0.270619493204016 -0.889758346442451 2.177000000000000
-0.270495184755140 -0.883386131558898 2.176000000000000
-0.270619493204016 -0.877825852458028 2.177000000000000
-0.270619493204016 -0.871859605465817 2.177000000000000
-0.271613960795028 -0.869075327636577 2.185000000000000
-0.271986886141657 -0.864272172678590 2.188000000000000
-0.271986886141657 -0.858275779284489 2.188000000000000
-0.270992418550645 -0.849163190695176 2.180000000000000
-0.270370876306263 -0.841254802869937 2.175000000000000
-0.270495184755140 -0.835678080277128 2.176000000000000
-0.260550508845024 -0.787721841890344 2.096000000000000
-0.256696946929855 -0.759093470289351 2.065000000000000
-0.253216310361314 -0.743218111958255 2.037000000000000
-0.251724608974797 -0.733290123490624 2.025000000000000
-0.249362748446144 -0.720912263008173 2.006000000000000
-0.246627962570863 -0.707568632394775 1.984000000000000
-0.240039614780411 -0.678082721726786 1.931000000000000
-0.239418072536029 -0.671048579556355 1.926000000000000
-0.231586640256813 -0.643992688127251 1.863000000000000
-0.230343555768049 -0.635457638824181 1.853000000000000
-0.229597705074790 -0.623276321919723 1.847000000000000
-0.226241376955126 -0.609177222474965 1.820000000000000
-0.223755207977597 -0.597549919700948 1.800000000000000
-0.222387815039956 -0.588995324567125 1.789000000000000
-0.222014889693327 -0.583112950346136 1.786000000000000
-0.221269039000068 -0.576275768322161 1.780000000000000
-0.220771805204563 -0.570113492981369 1.776000000000000
-0.220523188306810 -0.564609680831821 1.774000000000000
-0.219404412266922 -0.556908130210532 1.765000000000000
-0.218409944675910 -0.549568698168743 1.757000000000000
-0.217664093982651 -0.542893210482178 1.751000000000000
-0.218161327778157 -0.539323679176510 1.755000000000000
-0.217291168636022 -0.532381993280093 1.748000000000000
-0.216669626391640 -0.526082327082979 1.743000000000000
-0.215302233453999 -0.518015555543375 1.732000000000000
-0.215177925005123 -0.512972522924968 1.731000000000000
-0.214059148965235 -0.505586139232527 1.722000000000000
-0.214183457414111 -0.501157720493524 1.723000000000000
-0.214183457414111 -0.496435697724769 1.723000000000000
-0.214432074311864 -0.492284439523577 1.725000000000000
-0.214307765862988 -0.487274293889050 1.724000000000000
-0.213686223618605 -0.481150024939296 1.719000000000000
-0.213437606720852 -0.475884643422877 1.717000000000000
-0.212691756027594 -0.469532544411131 1.711000000000000
-0.212194522232088 -0.463756691130929 1.707000000000000
-0.211697288436582 -0.458002762506646 1.703000000000000
-0.211697288436582 -0.453335551377691 1.703000000000000
-0.211324363089953 -0.447877967365150 1.700000000000000
-0.211075746192200 -0.442697543890421 1.698000000000000
-0.210329895498941 -0.436496176888124 1.692000000000000
-0.209956970152312 -0.431093404515383 1.689000000000000
-0.209584044805683 -0.425707075634582 1.686000000000000
-0.209708353254559 -0.421336209117368 1.687000000000000
-0.209708353254559 -0.416712847300253 1.687000000000000
-0.209584044805683 -0.411845211929205 1.686000000000000
-0.209086811010177 -0.406258458806312 1.682000000000000
-0.208589577214671 -0.400693630339339 1.678000000000000
-0.208216651868042 -0.395386778336248 1.675000000000000
-0.208092343419165 -0.390562992277040 1.674000000000000
-0.208092343419165 -0.385975258025794 1.674000000000000
-0.207843726521412 -0.380931863650565 1.672000000000000
-0.207595109623660 -0.375899431603295 1.670000000000000
-0.207595109623660 -0.371322659680010 1.670000000000000
-0.207470801174783 -0.366526279440702 1.669000000000000
-0.207346492725907 -0.361735380365374 1.668000000000000
-0.206973567379277 -0.356521708149943 1.665000000000000
-0.206849258930401 -0.351747252566555 1.664000000000000
-0.206600642032648 -0.346769632159085 1.662000000000000
-0.206476333583772 -0.342008879485648 1.661000000000000
-0.206227716686019 -0.337050443152108 1.659000000000000
-0.206103408237142 -0.332303393388620 1.658000000000000
-0.205979099788266 -0.327561824789112 1.657000000000000
-0.205606174441637 -0.322435851197360 1.654000000000000
-0.205357557543884 -0.317518523593670 1.652000000000000
-0.205233249095007 -0.312801620232073 1.651000000000000
-0.205606174441637 -0.308837083363023 1.654000000000000
-0.205854791339389 -0.304672122251881 1.656000000000000
-0.205730482890513 -0.299952478308294 1.655000000000000
-0.205481865992760 -0.295059815942514 1.653000000000000
-0.205357557543884 -0.290353874908876 1.652000000000000
-0.205606174441637 -0.286172470305794 1.654000000000000
-0.205357557543884 -0.281298992013944 1.652000000000000
-0.204984632197254 -0.276268938791842 1.649000000000000
-0.204736015299501 -0.271420125737902 1.647000000000000
-0.204860323748378 -0.267068443294618 1.648000000000000
-0.204984632197254 -0.262711279687354 1.649000000000000
-0.204736015299501 -0.257878910125354 1.647000000000000
-0.204611706850625 -0.253211337239576 1.646000000000000
-0.204487398401749 -0.248549245517778 1.645000000000000
-0.204611706850625 -0.244189341328525 1.646000000000000
-0.204736015299501 -0.239823955975291 1.647000000000000
-0.204860323748378 -0.235453089458077 1.648000000000000
-0.204736015299501 -0.230796478900259 1.647000000000000
-0.204736015299501 -0.226282740362743 1.647000000000000
-0.204487398401749 -0.221499701276563 1.645000000000000
-0.204487398401749 -0.216991443903027 1.645000000000000
-0.204611706850625 -0.212612355639844 1.646000000000000
-0.204736015299501 -0.208227786212680 1.647000000000000
-0.204611706850625 -0.203590359728792 1.646000000000000
-0.204363089952872 -0.198837467044502 1.644000000000000
-0.204238781503996 -0.194213743470563 1.643000000000000
-0.204114473055119 -0.189595501060605 1.642000000000000
-0.204238781503996 -0.185208191051452 1.643000000000000
-0.204238781503996 -0.180705414841896 1.643000000000000
-0.204114473055119 -0.176095394177908 1.642000000000000
-0.203990164606243 -0.171490854677899 1.641000000000000
-0.203741547708490 -0.166790033051419 1.639000000000000
-0.203617239259613 -0.162199196461361 1.638000000000000
-0.203244313912984 -0.157421276782338 1.635000000000000
-0.203492930810737 -0.153127508317666 1.637000000000000
-0.203368622361861 -0.148550374637558 1.636000000000000
-0.203741547708490 -0.144330963643439 1.639000000000000
-0.203865856157366 -0.139924469560356 1.640000000000000
-0.203865856157366 -0.135429915096770 1.640000000000000
-0.203741547708490 -0.130855521998652 1.639000000000000
-0.203368622361861 -0.126132413959428 1.636000000000000
-0.203244313912984 -0.121574464353250 1.635000000000000
-0.203120005464108 -0.117021995911052 1.634000000000000
-0.203244313912984 -0.112612761245978 1.635000000000000
-0.202871388566355 -0.107933502518595 1.632000000000000
-0.202747080117478 -0.103397477568336 1.631000000000000
-0.202622771668602 -0.098866933782058 1.630000000000000
-0.202871388566355 -0.094515613095597 1.632000000000000
-0.202622771668602 -0.089932636494686 1.630000000000000
-0.202747080117478 -0.085517920665633 1.631000000000000
-0.202747080117478 -0.081048031439957 1.631000000000000
-0.202871388566355 -0.076625093864933 1.632000000000000
-0.202871388566355 -0.072152464057267 1.632000000000000
-0.202498463219725 -0.067555422789584 1.629000000000000
-0.202498463219725 -0.063091014727888 1.629000000000000
-0.202747080117478 -0.058698585311577 1.631000000000000
-0.202995697015231 -0.054295193567306 1.633000000000000
-0.202622771668602 -0.049728298701512 1.630000000000000
-0.202125537873096 -0.045150079750936 1.626000000000000
-0.202125537873096 -0.040693893435210 1.626000000000000
-0.202001229424220 -0.036215420706741 1.625000000000000
-0.202125537873096 -0.031781520803758 1.626000000000000
-0.201876920975343 -0.027291723990507 1.624000000000000
