# This PCD file was generated using the MATLAB® pcwrite function
# from Computer Vision Toolbox®.
# .PCD v.7 - Point Cloud Data file format
VERSION .7
FIELDS x y z
SIZE 8 8 8
TYPE F F F
COUNT 1 1 1
WIDTH 867
HEIGHT 1
VIEWPOINT 0 0 0 1 0 0 0
POINTS 867
DATA ascii
-0.299431732805136 1.007842306912296 2.011000000000000
-0.300027320538215 1.015369238611512 2.015000000000000
-0.300176217471484 1.021398157232670 2.016000000000000
-0.299133938938597 1.023357465071282 2.009000000000000
-0.298985042005328 1.028351167213869 2.008000000000000
-0.299729526671675 1.036428594136251 2.013000000000000
-0.300325114404754 1.044015818639246 2.017000000000000
-0.301069599071102 1.052145316619437 2.022000000000000
-0.301218496004371 1.058209862806466 2.023000000000000
-0.301218496004371 1.063754060172218 2.023000000000000
-0.302111877603989 1.072469680941445 2.029000000000000
-0.302409671470528 1.079092944097609 2.031000000000000
-0.302856362270337 1.086261221312958 2.034000000000000
-0.303154156136876 1.092909149707032 2.036000000000000
-0.303005259203606 1.097949441743449 2.035000000000000
-0.303303053070145 1.104611073047472 2.037000000000000
-0.302409671470528 1.106923554205971 2.031000000000000
-0.302111877603989 1.111394166945292 2.029000000000000
-0.301814083737450 1.115853817356654 2.027000000000000
-0.302111877603989 1.122515448660677 2.029000000000000
-0.302260774537258 1.128632065905516 2.030000000000000
-0.301665186804180 1.131960579468656 2.026000000000000
-0.301962980670719 1.138635913682630 2.028000000000000
-0.301218496004371 1.141372823292754 2.023000000000000
-0.301814083737450 1.149184775518929 2.027000000000000
-0.300920702137832 1.151321859430068 2.021000000000000
-0.301516289870910 1.159150255148183 2.025000000000000
-0.300622908271293 1.161248970911463 2.019000000000000
-0.301814083737450 1.171405414293779 2.027000000000000
-0.301962980670719 1.177541215612547 2.028000000000000
-0.301069599071102 1.179598822645977 2.022000000000000
-0.300325114404754 1.182209665484562 2.017000000000000
-0.301516289870910 1.192448326326579 2.025000000000000
-0.302707465337067 1.202730836480435 2.033000000000000
-0.302260774537258 1.206519406061071 2.030000000000000
-0.301218496004371 1.207903191681786 2.023000000000000
-0.301218496004371 1.213447389047538 2.023000000000000
-0.301367392937641 1.219594152694266 2.024000000000000
-0.301367392937641 1.225141090642009 2.024000000000000
-0.300474011338023 1.227039743920019 2.018000000000000
-0.300325114404754 1.231959450348876 2.017000000000000
-0.300771805204563 1.239327790049495 2.020000000000000
-0.302707465337067 1.252875265151307 2.033000000000000
-0.303154156136876 1.260303897655706 2.036000000000000
-0.303005259203606 1.265261972232423 2.035000000000000
-0.301814083737450 1.265843129086893 2.027000000000000
-0.302260774537258 1.273279983337261 2.030000000000000
-0.303005259203606 1.281993225281321 2.035000000000000
-0.303600846936685 1.290101160362415 2.039000000000000
-0.303749743869954 1.296324660304862 2.040000000000000
-0.303005259203606 1.298724478330218 2.035000000000000
-0.304494228536302 1.310710906968203 2.045000000000000
-0.305387610135920 1.320177447202688 2.051000000000000
-0.306727682535346 1.331616121199498 2.060000000000000
-0.305834300935728 1.333366783050048 2.054000000000000
-0.303898640803224 1.330521280619152 2.041000000000000
-0.337056212007377 0.150840558420986 2.306000000000000
-0.340564169114132 0.158796007520157 2.330000000000000
-0.339979509596339 0.164897990057169 2.326000000000000
-0.336910047127928 0.169726270670840 2.305000000000000
-0.335302233453999 0.175203192229902 2.294000000000000
-0.335886892971792 0.181806547798490 2.298000000000000
-0.334279079297862 0.187203992479843 2.287000000000000
-0.331063451950003 0.191610585223878 2.265000000000000
-0.329017143637730 0.196595287295210 2.251000000000000
-0.327847824602145 0.202043717763904 2.243000000000000
-0.326240010928215 0.207169844828248 2.232000000000000
-0.325216856772078 0.212617913540119 2.225000000000000
-0.324632197254286 0.218322511688582 2.221000000000000
-0.323901372857045 0.223904145404318 2.216000000000000
-0.322147394303668 0.228731910788575 2.204000000000000
-0.321562734785875 0.234346069731368 2.200000000000000
-0.319662591353050 0.238954950313248 2.187000000000000
-0.319224096714705 0.244612596811059 2.184000000000000
-0.317470118161328 0.249221115636116 2.172000000000000
-0.317470118161328 0.255173659718378 2.172000000000000
-0.316593128884639 0.260404860696217 2.166000000000000
-0.314985315210710 0.264988352526543 2.155000000000000
-0.312208182501195 0.268505911435352 2.136000000000000
-0.312939006898436 0.275002022549509 2.141000000000000
-0.313085171777884 0.281000794768777 2.142000000000000
-0.313085171777884 0.286871121391339 2.142000000000000
-0.312062017621747 0.291784776615162 2.135000000000000
-0.312062017621747 0.297635919163794 2.135000000000000
-0.313085171777884 0.304482101259023 2.142000000000000
-0.312939006898436 0.310207538792938 2.141000000000000
-0.315716139607950 0.318880088575610 2.160000000000000
-0.312062017621747 0.321040489358320 2.135000000000000
-0.308700225394440 0.323370082710764 2.112000000000000
-0.307823236117752 0.328223083373985 2.106000000000000
-0.309284884912233 0.335580669030875 2.116000000000000
-0.308992555153337 0.341057075360523 2.114000000000000
-0.309431049791681 0.347342885175096 2.117000000000000
-0.308115565876648 0.351643373546806 2.108000000000000
-0.307530906358855 0.356742303075481 2.104000000000000
-0.306653917082167 0.361474718131142 2.098000000000000
-0.306800081961615 0.367399494636681 2.099000000000000
-0.305776927805478 0.371907543725986 2.092000000000000
-0.304899938528789 0.376557741321947 2.086000000000000
-0.303730619493204 0.380808537461015 2.078000000000000
-0.303292124854860 0.385945473380727 2.075000000000000
-0.302415135578171 0.390499750607039 2.069000000000000
-0.302268970698723 0.395978535761854 2.068000000000000
-0.302415135578171 0.401840278881623 2.069000000000000
-0.302122805819275 0.407116622726002 2.067000000000000
-0.301830476060378 0.412382004242421 2.065000000000000
-0.301538146301482 0.417636423430880 2.063000000000000
-0.301830476060378 0.423700607861085 2.065000000000000
-0.301391981422034 0.428736142247167 2.062000000000000
-0.301245816542586 0.434176559254123 2.061000000000000
-0.300953486783690 0.439398091458702 2.059000000000000
-0.300953486783690 0.445040949776094 2.059000000000000
-0.300222662386449 0.449589384081603 2.054000000000000
-0.299345673109760 0.453888787182846 2.048000000000000
-0.298322518953623 0.457930937333852 2.041000000000000
-0.298614848712520 0.463978678272118 2.043000000000000
-0.298176354074175 0.468888145886660 2.040000000000000
-0.298322518953623 0.474711520858569 2.041000000000000
-0.298030189194727 0.479834392111509 2.039000000000000
-0.297737859435831 0.484946301036488 2.037000000000000
-0.297299364797487 0.489806438175211 2.034000000000000
-0.297007035038590 0.494893681862280 2.032000000000000
-0.297007035038590 0.500462544465943 2.032000000000000
-0.296276210641350 0.504786251048273 2.027000000000000
-0.296714705279694 0.511096726100755 2.030000000000000
-0.296568540400246 0.516405595172191 2.029000000000000
-0.296422375520798 0.521708983079647 2.028000000000000
-0.296130045761902 0.526746896290896 2.026000000000000
-0.296422375520798 0.532824783631052 2.028000000000000
-0.296714705279694 0.538913633299167 2.030000000000000
-0.296568540400246 0.544208799460653 2.029000000000000
-0.296276210641350 0.549227528597973 2.027000000000000
-0.295399221364661 0.553140509638627 2.021000000000000
-0.294960726726317 0.557849914767900 2.018000000000000
-0.294960726726317 0.563380409223703 2.018000000000000
-0.295253056485213 0.569474740055798 2.020000000000000
-0.295106891605765 0.574726056905444 2.019000000000000
-0.294814561846868 0.579684493238984 2.017000000000000
-0.294376067208524 0.584341827310448 2.014000000000000
-0.294229902329076 0.589568478922184 2.013000000000000
-0.293937572570180 0.594494028271844 2.011000000000000
-0.294083737449628 0.600303700333803 2.012000000000000
-0.293352913052387 0.604312239987284 2.007000000000000
-0.293352913052387 0.609812588041196 2.007000000000000
-0.292768253534595 0.614086602390884 2.003000000000000
-0.293060583293491 0.620194636132929 2.005000000000000
-0.293206748172939 0.626001567612898 2.006000000000000
-0.293937572570180 0.633073200944953 2.011000000000000
-0.293645242811283 0.637949419818793 2.009000000000000
-0.292768253534595 0.641533531020647 2.003000000000000
-0.292037429137354 0.645407782156619 1.998000000000000
-0.291452769619562 0.649580394972676 1.994000000000000
-0.291014274981217 0.654059591214790 1.991000000000000
-0.290283450583977 0.657859846637032 1.986000000000000
-0.290868110101769 0.664638599452980 1.990000000000000
-0.291452769619562 0.671439276924848 1.994000000000000
-0.291452769619562 0.676903997412891 1.994000000000000
-0.290868110101769 0.680999873933228 1.990000000000000
-0.291014274981217 0.686798583667228 1.991000000000000
-0.291452769619562 0.693298158877019 1.994000000000000
-0.291452769619562 0.698762879365062 1.994000000000000
-0.291160439860665 0.703521253213332 1.992000000000000
-0.290721945222321 0.707912750831767 1.989000000000000
-0.290575780342873 0.713005113925993 1.988000000000000
-0.290429615463425 0.718091995856240 1.987000000000000
-0.290721945222321 0.724265803566045 1.989000000000000
-0.290575780342873 0.729349944914302 1.988000000000000
-0.289844955945632 0.732950137851274 1.983000000000000
-0.289991120825080 0.738757069331243 1.984000000000000
-0.290721945222321 0.746069873878417 1.989000000000000
-0.291306604740113 0.753032245687694 1.993000000000000
-0.291014274981217 0.757733067314175 1.991000000000000
-0.290429615463425 0.761656287169143 1.987000000000000
-0.290575780342873 0.767487883887022 1.988000000000000
-0.290868110101769 0.773713762654637 1.990000000000000
-0.290575780342873 0.778384437879228 1.988000000000000
-0.290429615463425 0.783438432825595 1.987000000000000
-0.290429615463425 0.788883969239708 1.987000000000000
-0.290868110101769 0.795528795294969 1.990000000000000
-0.290868110101769 0.800982553455052 1.990000000000000
-0.290575780342873 0.805625822859742 1.988000000000000
-0.289844955945632 0.809034175057415 1.983000000000000
-0.290137285704528 0.815290200226920 1.985000000000000
-0.290137285704528 0.820730255477053 1.985000000000000
-0.290283450583977 0.826586517432842 1.986000000000000
-0.289844955945632 0.830772471402027 1.983000000000000
-0.289552626186736 0.835363669748908 1.981000000000000
-0.289406461307288 0.840368334219455 1.980000000000000
-0.289844955945632 0.847076193660486 1.983000000000000
-0.290137285704528 0.853370586977851 1.985000000000000
-0.290429615463425 0.859675942623175 1.987000000000000
-0.290137285704528 0.864250697478116 1.985000000000000
-0.290283450583977 0.870128884089825 1.986000000000000
-0.289698791066184 0.873808192147684 1.982000000000000
-0.289698791066184 0.879240025651847 1.982000000000000
-0.289844955945632 0.885118212263556 1.983000000000000
-0.290868110101769 0.893696442176460 1.990000000000000
-0.291306604740113 0.900505703151121 1.993000000000000
-0.291306604740113 0.905967683057174 1.993000000000000
-0.289991120825080 0.907313824043674 1.984000000000000
-0.289991120825080 0.912751138711817 1.984000000000000
-0.289991120825080 0.918188453379960 1.984000000000000
-0.290868110101769 0.926418991136958 1.990000000000000
-0.291160439860665 0.932809304823972 1.992000000000000
-0.291598934499010 0.939681599184403 1.995000000000000
-0.291598934499010 0.945149060254436 1.995000000000000
-0.291745099378458 0.951093020833904 1.996000000000000
-0.292622088655147 0.959438663034482 2.002000000000000
-0.292622088655147 0.964925308178445 2.002000000000000
-0.292183594016802 0.968957789556190 1.999000000000000
-0.291452769619562 0.971998903767204 1.994000000000000
-0.291745099378458 0.978444029094018 1.996000000000000
-0.291745099378458 0.983914230746041 1.996000000000000
-0.291745099378458 0.989384432398064 1.996000000000000
-0.292037429137354 0.995851482380798 1.998000000000000
-0.292768253534595 1.003832988933530 2.003000000000000
-0.293499077931835 1.011841901306161 2.008000000000000
-0.293499077931835 1.017344989942064 2.008000000000000
-0.292768253534595 1.020301146111388 2.003000000000000
-0.293352913052387 1.027839040138564 2.007000000000000
-0.293352913052387 1.033339388192477 2.007000000000000
-0.294083737449628 1.041427777442818 2.012000000000000
-0.294960726726317 1.050063921334335 2.018000000000000
-0.296422375520798 1.060825309822794 2.028000000000000
-0.296860870159142 1.067960700054263 2.031000000000000
-0.296422375520798 1.071941110374199 2.028000000000000
-0.296276210641350 1.076967699500666 2.027000000000000
-0.295837716003005 1.080920704000701 2.024000000000000
-0.295837716003005 1.086467641948444 2.024000000000000
-0.296276210641350 1.093633178581804 2.027000000000000
-0.297007035038590 1.101899705661494 2.032000000000000
-0.297445529676935 1.109103610442714 2.035000000000000
-0.296422375520798 1.110846412304117 2.028000000000000
-0.296422375520798 1.116404312579819 2.028000000000000
-0.295837716003005 1.119749269634900 2.024000000000000
-0.296276210641350 1.126964136744079 2.027000000000000
-0.295545386244109 1.129725711592114 2.022000000000000
-0.295837716003005 1.136390083478127 2.024000000000000
-0.294814561846868 1.137987634494061 2.017000000000000
-0.295545386244109 1.146350081943401 2.022000000000000
-0.295106891605765 1.150182500835877 2.019000000000000
-0.295691551123557 1.158005415390012 2.023000000000000
-0.294814561846868 1.160098649989312 2.017000000000000
-0.295399221364661 1.167938008035386 2.021000000000000
-0.296130045761902 1.176379932362436 2.026000000000000
-0.295399221364661 1.179015440438931 2.021000000000000
-0.294522232087972 1.181037419906491 2.015000000000000
-0.294814561846868 1.187737419358375 2.017000000000000
-0.296422375520798 1.199772816715358 2.028000000000000
-0.296860870159142 1.207113750596077 2.031000000000000
-0.296422375520798 1.210888617266763 2.028000000000000
-0.296422375520798 1.216446517542465 2.028000000000000
-0.296860870159142 1.223812116661094 2.031000000000000
-0.296860870159142 1.229378238682767 2.031000000000000
-0.296568540400246 1.233728265814528 2.029000000000000
-0.296422375520798 1.238678118645275 2.028000000000000
-0.296422375520798 1.244236018920978 2.028000000000000
-0.297591694556383 1.254724072724084 2.036000000000000
-0.297591694556383 1.260303897655706 2.036000000000000
-0.297591694556383 1.265883722587329 2.036000000000000
-0.296422375520798 1.266467620023788 2.028000000000000
-0.296422375520798 1.272025520299491 2.028000000000000
-0.296714705279694 1.278843364776944 2.030000000000000
-0.297737859435831 1.288835734996684 2.037000000000000
-0.298907178471416 1.299501926629139 2.045000000000000
-0.299053343350864 1.305744610645517 2.046000000000000
-0.299345673109760 1.312633710254710 2.048000000000000
-0.299930332627553 1.320821122213513 2.052000000000000
-0.300661157024793 1.329676874421052 2.057000000000000
-0.299345673109760 1.329471846001217 2.048000000000000
-0.298030189194727 1.329217487105562 2.039000000000000
-0.332620722628236 0.177112555702329 2.319000000000000
-0.333911618058876 0.184180001425103 2.328000000000000
-0.329178334813196 0.187858838102859 2.295000000000000
-0.327887439382556 0.193387107206086 2.286000000000000
-0.324158185916263 0.197381319096923 2.260000000000000
-0.324588484393143 0.203845266740845 2.263000000000000
-0.324445051567516 0.209954385753359 2.262000000000000
-0.323584454613756 0.215580230537757 2.256000000000000
-0.322150126357489 0.220779991559007 2.246000000000000
-0.320859230926849 0.226025980717265 2.237000000000000
-0.318851171368076 0.230703737605718 2.223000000000000
-0.315695649204289 0.234452590672155 2.201000000000000
-0.312396694214876 0.237971596608256 2.178000000000000
-0.312826992691756 0.244276590496758 2.181000000000000
-0.312253261389249 0.249794829069901 2.177000000000000
-0.313113858343009 0.256465975674594 2.183000000000000
-0.310532067481729 0.260284636845480 2.165000000000000
-0.311966395737996 0.267447641181081 2.175000000000000
-0.311536097261116 0.273031291965162 2.172000000000000
-0.307950276620449 0.275772696129750 2.147000000000000
-0.309528037702343 0.283099773627928 2.158000000000000
-0.308093709446076 0.287674681955460 2.148000000000000
-0.306515948364183 0.292058111300516 2.137000000000000
-0.307089679666689 0.298472366711795 2.141000000000000
-0.308667440748583 0.305903586325592 2.152000000000000
-0.304507888805410 0.307599535197294 2.123000000000000
-0.310245201830476 0.319322977587520 2.163000000000000
-0.308093709446076 0.322995302642469 2.148000000000000
-0.305081620107916 0.325666745230017 2.127000000000000
-0.303216993374769 0.329469894706840 2.114000000000000
-0.304077590328530 0.336215037025263 2.120000000000000
-0.304364455979783 0.342347736005218 2.122000000000000
-0.304221023154156 0.347999177825403 2.121000000000000
-0.303503859026023 0.352977883503341 2.116000000000000
-0.302356396421010 0.357420520381708 2.108000000000000
-0.302069530769756 0.362853077399516 2.106000000000000
-0.301495799467249 0.367924601108291 2.102000000000000
-0.300204904036610 0.372085319798512 2.093000000000000
-0.298770575780343 0.376016191358397 2.083000000000000
-0.296905949047196 0.379342479568961 2.070000000000000
-0.297336247524076 0.385573477743734 2.073000000000000
-0.297192814698450 0.391065965808499 2.072000000000000
-0.298053411652210 0.397893325586621 2.078000000000000
-0.298053411652210 0.403588254961824 2.078000000000000
-0.297909978826583 0.409086224190569 2.077000000000000
-0.297766546000956 0.414578712255334 2.076000000000000
-0.296905949047196 0.419053512603937 2.070000000000000
-0.296619083395943 0.424316153538365 2.068000000000000
-0.296332217744690 0.429567832144834 2.066000000000000
-0.296188784919063 0.435019211479750 2.065000000000000
-0.295758486442183 0.440038302373892 2.062000000000000
-0.295615053616556 0.445473238216868 2.061000000000000
-0.295328187965303 0.450683808093487 2.059000000000000
-0.294324158185916 0.454775288720313 2.052000000000000
-0.294324158185916 0.460398962963775 2.052000000000000
-0.293893859709036 0.465341317562197 2.049000000000000
-0.294754456662796 0.472335852841709 2.055000000000000
-0.293750426883410 0.476339634844856 2.048000000000000
-0.293463561232156 0.481481690171725 2.046000000000000
-0.292746397104023 0.485898576541714 2.041000000000000
-0.292746397104023 0.491492104383287 2.041000000000000
-0.292316098627143 0.496354982104000 2.038000000000000
-0.292029232975890 0.501447706955049 2.036000000000000
-0.291455501673383 0.506031407069605 2.032000000000000
-0.291885800150263 0.512355585032037 2.035000000000000
-0.291885800150263 0.517932669381670 2.035000000000000
-0.291742367324636 0.523252500781066 2.034000000000000
-0.291455501673383 0.528306857484255 2.032000000000000
-0.291742367324636 0.534401188316351 2.034000000000000
-0.292459531452770 0.541302905565026 2.039000000000000
-0.292746397104023 0.547427382799011 2.041000000000000
-0.291885800150263 0.551395175479465 2.035000000000000
-0.290881770370876 0.555056384733862 2.028000000000000
-0.290021173417116 0.558955662864566 2.022000000000000
-0.290308039068370 0.565055474860641 2.024000000000000
-0.290594904719623 0.571166249184677 2.026000000000000
-0.291455501673383 0.578426620917218 2.032000000000000
-0.290881770370876 0.582845886112375 2.028000000000000
-0.290164606242743 0.586953086717495 2.023000000000000
-0.289160576463356 0.590447120470503 2.016000000000000
-0.289017143637730 0.595676512664229 2.015000000000000
-0.289017143637730 0.601198785374062 2.015000000000000
-0.288156546683970 0.604914444511436 2.009000000000000
-0.288156546683970 0.610420273729329 2.009000000000000
-0.288299979509596 0.616232686373278 2.010000000000000
-0.289160576463356 0.623597200221439 2.016000000000000
-0.288873710812103 0.628498084333189 2.014000000000000
-0.289304009288983 0.634962031977111 2.017000000000000
-0.288586845160850 0.638902057080842 2.012000000000000
-0.287869681032716 0.642814676364673 2.007000000000000
-0.287009084078956 0.646376862910608 2.001000000000000
-0.286865651253330 0.651534999972594 2.000000000000000
-0.286865651253330 0.657016163952577 2.000000000000000
-0.286005054299570 0.660509835948762 1.994000000000000
-0.286865651253330 0.667978491912542 2.000000000000000
-0.287295949730210 0.674469845376364 2.003000000000000
-0.287295949730210 0.679959231102317 2.003000000000000
-0.287295949730210 0.685448616828270 2.003000000000000
-0.286865651253330 0.689903147832474 2.000000000000000
-0.287295949730210 0.696427388280175 2.003000000000000
-0.286722218427703 0.700515043054543 1.999000000000000
-0.286578785602076 0.705640293132650 1.998000000000000
-0.286291919950823 0.710404148144900 1.996000000000000
-0.286005054299570 0.715157040829190 1.994000000000000
-0.285718188648316 0.719898971185521 1.992000000000000
-0.285861621473943 0.725722346157430 1.993000000000000
-0.285574755822690 0.730450573603810 1.991000000000000
-0.285287890171436 0.735167838722231 1.989000000000000
-0.285287890171436 0.740618856300324 1.989000000000000
-0.285718188648316 0.747195167805835 1.992000000000000
-0.285861621473943 0.753032245687694 1.993000000000000
-0.285287890171436 0.756971909034603 1.989000000000000
-0.285431322997063 0.762806246334471 1.990000000000000
-0.285144457345810 0.767487883887022 1.988000000000000
-0.285431322997063 0.773713762654637 1.990000000000000
-0.284857591694556 0.777601354943736 1.986000000000000
-0.284857591694556 0.783044150775859 1.986000000000000
-0.285144457345810 0.789280991871434 1.988000000000000
-0.285287890171436 0.795129032081253 1.989000000000000
-0.285574755822690 0.801385057250758 1.991000000000000
-0.285001024520183 0.805220578482046 1.987000000000000
-0.285287890171436 0.811482084815531 1.989000000000000
-0.285718188648316 0.818165279018652 1.992000000000000
-0.286005054299570 0.824451450590047 1.994000000000000
-0.286005054299570 0.829916171078090 1.994000000000000
-0.285144457345810 0.832867207840257 1.988000000000000
-0.285001024520183 0.837893796966724 1.987000000000000
-0.284857591694556 0.842914904929211 1.986000000000000
-0.285001024520183 0.848784869794950 1.987000000000000
-0.284570726043303 0.852940677362245 1.984000000000000
-0.284570726043303 0.858377992030387 1.984000000000000
-0.284283860392050 0.862944525139358 1.982000000000000
-0.284283860392050 0.868376358643521 1.982000000000000
-0.284714158868930 0.875130807978382 1.985000000000000
-0.284857591694556 0.881014475754071 1.986000000000000
-0.284714158868930 0.886010918478648 1.985000000000000
-0.284570726043303 0.891001880039245 1.984000000000000
-0.285431322997063 0.899150200336543 1.990000000000000
-0.286148487125196 0.906876832764206 1.995000000000000
-0.285001024520183 0.908685770350191 1.987000000000000
-0.284427293217676 0.912291082694321 1.983000000000000
-0.284714158868930 0.918651249979446 1.985000000000000
-0.285001024520183 0.925022379592530 1.987000000000000
-0.284857591694556 0.929999638243177 1.986000000000000
-0.284714158868930 0.934971415729844 1.985000000000000
-0.285718188648316 0.943727783472098 1.992000000000000
-0.285861621473943 0.949663522305597 1.993000000000000
-0.286148487125196 0.956083982394501 1.995000000000000
-0.286291919950823 0.962033424137950 1.996000000000000
-0.286005054299570 0.966534183279161 1.994000000000000
-0.285574755822690 0.970536518255017 1.991000000000000
-0.285287890171436 0.975012612158318 1.989000000000000
-0.285287890171436 0.980463629736411 1.989000000000000
-0.285718188648316 0.987401698064601 1.992000000000000
-0.286148487125196 0.994356209884731 1.995000000000000
-0.286722218427703 1.001828329944147 1.999000000000000
-0.287152516904583 1.008818469330147 2.002000000000000
-0.287439382555836 1.015318406296761 2.004000000000000
-0.287152516904583 1.019791759618073 2.002000000000000
-0.287582815381463 1.026814785987952 2.005000000000000
-0.287726248207090 1.032824520535181 2.006000000000000
-0.287869681032716 1.038839736246389 2.007000000000000
-0.289017143637730 1.048502874870507 2.015000000000000
-0.290451471893996 1.059256041612997 2.025000000000000
-0.291025203196503 1.066909040083752 2.029000000000000
-0.290021173417116 1.068769686970725 2.022000000000000
-0.289304009288983 1.071654588008309 2.017000000000000
-0.289017143637730 1.076114238419671 2.015000000000000
-0.288873710812103 1.081099718816288 2.014000000000000
-0.289447442114610 1.088777382524953 2.018000000000000
-0.290021173417116 1.096476970889538 2.022000000000000
-0.291168636022130 1.106378540146786 2.030000000000000
-0.290164606242743 1.108107639098239 2.023000000000000
-0.290021173417116 1.113101341240826 2.022000000000000
-0.289017143637730 1.114770147388499 2.015000000000000
-0.289590874940236 1.122516325646914 2.019000000000000
-0.289160576463356 1.126373409777300 2.016000000000000
-0.289304009288983 1.132459880620248 2.017000000000000
-0.288443412335223 1.134602445695368 2.011000000000000
-0.289160576463356 1.142948449652768 2.016000000000000
-0.289160576463356 1.148473462944591 2.016000000000000
-0.289734307765863 1.156288155752756 2.020000000000000
-0.289304009288983 1.160098649989312 2.017000000000000
-0.289590874940236 1.166782205949255 2.019000000000000
-0.290308039068370 1.175218649112325 2.024000000000000
-0.290164606242743 1.180182204853023 2.023000000000000
-0.289447442114610 1.182795788273598 2.018000000000000
-0.289160576463356 1.187148555987349 2.016000000000000
-0.290308039068370 1.197406400903296 2.024000000000000
-0.291598934499010 1.208302439666087 2.033000000000000
-0.292316098627143 1.216859468436717 2.038000000000000
-0.293033262755276 1.225443903027247 2.043000000000000
-0.293893859709036 1.234658309718652 2.049000000000000
-0.294324158185916 1.242089682805041 2.052000000000000
-0.294037292534663 1.246497262158592 2.050000000000000
-0.293606994057783 1.250283091157238 2.047000000000000
-0.292602964278396 1.251598362228203 2.040000000000000
-0.293320128406530 1.260270495442412 2.045000000000000
-0.293033262755276 1.264636966066114 2.043000000000000
-0.293320128406530 1.271479475781477 2.045000000000000
-0.292172665801516 1.272088038455846 2.037000000000000
-0.292316098627143 1.278297835488344 2.038000000000000
-0.293033262755276 1.287033002088324 2.043000000000000
-0.293750426883410 1.295795574508202 2.048000000000000
-0.294180725360290 1.303314646218271 2.051000000000000
-0.293320128406530 1.305106416798671 2.045000000000000
-0.293750426883410 1.312633710254710 2.048000000000000
-0.294467591011543 1.321464797224338 2.053000000000000
-0.295041322314050 1.329676874421052 2.057000000000000
-0.293320128406530 1.327524377476801 2.045000000000000
-0.293893859709036 1.335736454673514 2.049000000000000
-0.321641964346698 0.180857166347846 2.286000000000000
-0.325159483641828 0.189168529348892 2.311000000000000
-0.321782665118503 0.193471703490953 2.287000000000000
-0.321360562803087 0.199477403901493 2.284000000000000
-0.320797759715866 0.205376583371245 2.280000000000000
-0.320657058944061 0.211532292277588 2.279000000000000
-0.318968649682399 0.216631375278854 2.267000000000000
-0.316717437333515 0.221271487533092 2.251000000000000
-0.315732531930879 0.226733259154914 2.244000000000000
-0.313059217266580 0.230911298323312 2.225000000000000
-0.309682398743255 0.234452590672155 2.201000000000000
-0.307431186394372 0.238736427267695 2.185000000000000
-0.308556792568814 0.245620615753961 2.193000000000000
-0.310104501058671 0.252892881612339 2.204000000000000
-0.311652209548528 0.260225440274497 2.215000000000000
-0.310104501058671 0.264973367024221 2.204000000000000
-0.306446280991736 0.267816534479262 2.178000000000000
-0.301803155522164 0.269637256567805 2.145000000000000
-0.304054367871047 0.277570934483647 2.161000000000000
-0.303913667099242 0.283362145985321 2.160000000000000
-0.301662454750359 0.287138974912712 2.144000000000000
-0.299411242401475 0.290828105216424 2.128000000000000
-0.300818250119527 0.298054142937794 2.138000000000000
-0.302225257837579 0.305334992298965 2.148000000000000
-0.305461375589099 0.314554211452344 2.171000000000000
-0.302928761696605 0.317846680881152 2.153000000000000
-0.303632265555631 0.324499005168738 2.158000000000000
-0.298848439314255 0.325207412726166 2.124000000000000
-0.297441431596202 0.329469894706840 2.114000000000000
-0.298144935455229 0.336056445026666 2.119000000000000
-0.298848439314255 0.342670401166392 2.124000000000000
-0.298567037770644 0.348163250987980 2.122000000000000
-0.298144935455229 0.353478324737041 2.119000000000000
-0.297441431596202 0.358437846341049 2.114000000000000
-0.296878628508982 0.363542257033704 2.110000000000000
-0.296175124649956 0.368449707579902 2.105000000000000
-0.295190219247319 0.372974200161146 2.098000000000000
-0.293923912301072 0.377099291285497 2.089000000000000
-0.292376203811215 0.380808537461015 2.078000000000000
-0.292376203811215 0.386503466836217 2.078000000000000
-0.292516904583020 0.392387134611906 2.079000000000000
-0.292939006898436 0.398659241516528 2.082000000000000
-0.292798306126631 0.404170913655224 2.081000000000000
-0.292657605354826 0.409677104629939 2.080000000000000
-0.292657605354826 0.415377515169121 2.080000000000000
-0.291954101495800 0.420065719156120 2.075000000000000
-0.291813400723994 0.425547244892925 2.074000000000000
-0.291813400723994 0.431231211940168 2.074000000000000
-0.291531999180384 0.436493852874596 2.072000000000000
-0.290547093777747 0.440678513289082 2.065000000000000
-0.289984290690527 0.445473238216868 2.061000000000000
-0.290265692234137 0.451559347302993 2.063000000000000
-0.289984290690527 0.456769917179612 2.061000000000000
-0.290124991462332 0.462642622627341 2.062000000000000
-0.290265692234137 0.468520809239050 2.063000000000000
-0.290547093777747 0.474634324145075 2.065000000000000
-0.289280786831501 0.478200336543468 2.056000000000000
-0.288858684516085 0.483128988231941 2.053000000000000
-0.288014479885254 0.487326989799554 2.047000000000000
-0.287873779113449 0.492696151674770 2.046000000000000
-0.287310976026228 0.497329182265146 2.042000000000000
-0.286607472167202 0.501693997577325 2.037000000000000
-0.286185369851786 0.506529469478138 2.034000000000000
-0.286466771395397 0.512607356818294 2.036000000000000
-0.286748172939007 0.518696206486409 2.038000000000000
-0.287029574482617 0.524796018482485 2.040000000000000
-0.286748172939007 0.529866818677614 2.038000000000000
-0.287310976026228 0.536503061230083 2.042000000000000
-0.287592377569838 0.542630279046058 2.044000000000000
-0.287873779113449 0.548768459189994 2.046000000000000
-0.286748172939007 0.552208043060024 2.038000000000000
-0.285903968308176 0.556151170502568 2.032000000000000
-0.285341165220955 0.560614285009565 2.028000000000000
-0.285341165220955 0.566172185285267 2.028000000000000
-0.285481865992760 0.572012003749116 2.029000000000000
-0.286607472167202 0.579849914767900 2.037000000000000
-0.286326070623591 0.584857681577260 2.035000000000000
-0.285763267536370 0.589274206190427 2.031000000000000
-0.284496960590124 0.592204403567141 2.022000000000000
-0.284778362133734 0.598337102547097 2.024000000000000
-0.284356259818318 0.602988955454580 2.021000000000000
-0.283652755959292 0.607022160345971 2.016000000000000
-0.283793456731098 0.612851016481860 2.017000000000000
-0.283793456731098 0.618378770355673 2.017000000000000
-0.284074858274708 0.624525172245578 2.019000000000000
-0.283512055187487 0.628810148923225 2.015000000000000
-0.283793456731098 0.634962031977111 2.017000000000000
-0.283371354415682 0.639537148588874 2.014000000000000
-0.283230653643877 0.644736394380711 2.013000000000000
-0.282386449013046 0.648315024418586 2.007000000000000
-0.282245748241240 0.653489604972512 2.006000000000000
-0.282386449013046 0.659315720526411 2.007000000000000
-0.281682945154020 0.663159825260492 2.002000000000000
-0.282245748241240 0.669982427388280 2.006000000000000
-0.282245748241240 0.675480034860203 2.006000000000000
-0.282105047469435 0.680638171922189 2.005000000000000
-0.282245748241240 0.686475249804048 2.006000000000000
-0.282245748241240 0.691972857275971 2.006000000000000
-0.282527149784851 0.698165849059706 2.008000000000000
-0.282245748241240 0.702968072219817 2.006000000000000
-0.282245748241240 0.708465679691739 2.006000000000000
-0.282105047469435 0.713607373261786 2.005000000000000
-0.281542244382214 0.717667622216254 2.001000000000000
-0.281260842838604 0.722428736646514 1.999000000000000
-0.281542244382214 0.728635431340199 2.001000000000000
-0.281120142066799 0.733018707212664 1.998000000000000
-0.280416638207773 0.736646305969536 1.993000000000000
-0.280275937435968 0.741735928481772 1.992000000000000
-0.280275937435968 0.747195167805835 1.992000000000000
-0.279994535892357 0.751898730014306 1.990000000000000
-0.279713134348747 0.756591329894816 1.988000000000000
-0.280135236664162 0.763189566056248 1.991000000000000
-0.280275937435968 0.769032125102087 1.992000000000000
-0.280275937435968 0.774491364426149 1.992000000000000
-0.279572433576942 0.777992896411482 1.987000000000000
-0.279572433576942 0.783438432825595 1.987000000000000
-0.279431732805136 0.788486946607982 1.986000000000000
-0.279572433576942 0.794329505653821 1.987000000000000
-0.279994535892357 0.800982553455052 1.990000000000000
-0.279853835120552 0.806031067237439 1.989000000000000
-0.280275937435968 0.812706039694589 1.992000000000000
-0.280979441294994 0.820218906727033 1.997000000000000
-0.280979441294994 0.825691848961045 1.997000000000000
-0.280698039751383 0.830332377783746 1.995000000000000
-0.279994535892357 0.833705102415549 1.990000000000000
-0.279994535892357 0.839158860575632 1.990000000000000
-0.280135236664162 0.845037047187341 1.991000000000000
-0.279853835120552 0.849639207862182 1.989000000000000
-0.279291032033331 0.853370586977851 1.985000000000000
-0.278587528174305 0.856647391240004 1.980000000000000
-0.278587528174305 0.862073743580187 1.980000000000000
-0.278868929717915 0.868376358643521 1.982000000000000
-0.279853835120552 0.876894295752646 1.989000000000000
-0.279853835120552 0.882345313330739 1.989000000000000
-0.278868929717915 0.884671859156010 1.982000000000000
-0.278165425858889 0.887858224212494 1.977000000000000
-0.279150331261526 0.896439194707388 1.984000000000000
-0.280698039751383 0.906876832764206 1.995000000000000
-0.279994535892357 0.910057716656709 1.990000000000000
-0.279572433576942 0.914131306764304 1.987000000000000
-0.279150331261526 0.918188453379960 1.984000000000000
-0.279150331261526 0.923625768048103 1.984000000000000
-0.278868929717915 0.928126527189314 1.982000000000000
-0.278728228946110 0.933087342348021 1.981000000000000
-0.278868929717915 0.938990194197640 1.982000000000000
-0.279009630489721 0.944898527211238 1.983000000000000
-0.278728228946110 0.949374621114540 1.981000000000000
-0.279713134348747 0.958177578750623 1.988000000000000
-0.279713134348747 0.963625855746726 1.988000000000000
-0.279994535892357 0.970049056417621 1.990000000000000
-0.279150331261526 0.972561600061389 1.984000000000000
-0.279009630489721 0.977505971728156 1.983000000000000
-0.279572433576942 0.984923280147772 1.987000000000000
-0.279994535892357 0.991864089057952 1.990000000000000
-0.279713134348747 0.996315517723344 1.988000000000000
-0.280275937435968 1.003779416036789 1.992000000000000
-0.280838740523188 1.011265239006155 1.996000000000000
-0.281682945154020 1.019791759618073 2.002000000000000
-0.281964346697630 1.026302658912647 2.004000000000000
-0.282386449013046 1.033339388192477 2.007000000000000
-0.282667850556656 1.039874952724961 2.009000000000000
-0.283089952872072 1.046941828406680 2.012000000000000
-0.283934157502903 1.055594415790137 2.018000000000000
-0.284637661361929 1.063754060172218 2.023000000000000
-0.283934157502903 1.066655404701742 2.018000000000000
-0.283512055187487 1.070591965709838 2.015000000000000
-0.283371354415682 1.075580186688445 2.014000000000000
-0.283371354415682 1.081099718816288 2.014000000000000
-0.283371354415682 1.086619250944131 2.014000000000000
-0.282949252100266 1.090511962640386 2.011000000000000
-0.283652755959292 1.098748343318187 2.016000000000000
-0.283089952872072 1.102082338045307 2.012000000000000
-0.282808551328461 1.106495398562839 2.010000000000000
-0.282667850556656 1.111450732557566 2.009000000000000
-0.283371354415682 1.119736443711187 2.014000000000000
-0.283230653643877 1.124697258869894 2.013000000000000
-0.283089952872072 1.129652592864621 2.012000000000000
-0.282808551328461 1.134038247562252 2.010000000000000
-0.283793456731098 1.143515388367874 2.017000000000000
-0.284215559046513 1.150752180132973 2.020000000000000
-0.284778362133734 1.158577835269098 2.024000000000000
-0.284074858274708 1.161248970911463 2.019000000000000
-0.283652755959292 1.165048502820059 2.016000000000000
-0.283934157502903 1.171734799361993 2.018000000000000
-0.284496960590124 1.179598822645977 2.022000000000000
-0.284074858274708 1.183381911062633 2.019000000000000
-0.284074858274708 1.188915146100426 2.019000000000000
-0.284778362133734 1.197406400903296 2.024000000000000
-0.286748172939007 1.211274162341115 2.038000000000000
-0.288436582200669 1.224024489840662 2.050000000000000
-0.289702889146916 1.235041114211014 2.059000000000000
-0.290687794549553 1.244901936495234 2.066000000000000
-0.290969196093163 1.251774592612487 2.068000000000000
-0.290828495321358 1.256834068722834 2.067000000000000
-0.290687794549553 1.261888063669200 2.066000000000000
-0.289702889146916 1.263255405797975 2.059000000000000
-0.289843589918721 1.269514533306293 2.060000000000000
-0.289280786831501 1.272684093114014 2.056000000000000
-0.289421487603306 1.278940480040341 2.057000000000000
-0.287733078341643 1.277083965951009 2.045000000000000
-0.288295881428864 1.285197382196083 2.049000000000000
-0.289421487603306 1.295852611500578 2.057000000000000
-0.290124991462332 1.304653552068317 2.062000000000000
-0.289140086059695 1.305856459277692 2.055000000000000
-0.288436582200669 1.308297386032898 2.050000000000000
-0.288858684516085 1.315838382398886 2.053000000000000
-0.290124991462332 1.327257872321766 2.062000000000000
-0.289702889146916 1.330969705606683 2.059000000000000
-0.289140086059695 1.334015939224854 2.055000000000000
-0.297441431596202 1.383903334192049 2.114000000000000
-0.317190082644628 0.200787456904348 2.299000000000000
-0.316500239054709 0.206637667655103 2.294000000000000
-0.314568677002937 0.211625110308425 2.280000000000000
-0.314292739566970 0.217682520019951 2.278000000000000
-0.311119459053343 0.221664684312361 2.255000000000000
-0.309601803155522 0.226733259154914 2.244000000000000
-0.307532272385766 0.231326419758500 2.229000000000000
-0.305876647769961 0.236156925724747 2.217000000000000
-0.304634929308107 0.241249442291565 2.208000000000000
-0.306014616487945 0.248420668373136 2.218000000000000
-0.307118366231815 0.255417220720992 2.226000000000000
-0.307808209821734 0.262105172574448 2.231000000000000
-0.306842428795847 0.267377844038960 2.224000000000000
-0.303393210846254 0.270398787566528 2.199000000000000
-0.299254149306741 0.272654176921011 2.169000000000000
-0.299806024178676 0.279112281644130 2.173000000000000
-0.301461648794481 0.286641800452744 2.185000000000000
-0.297736493408920 0.289013949562329 2.158000000000000
-0.294977119049245 0.292194778643193 2.138000000000000
-0.292769619561505 0.295823616143124 2.122000000000000
-0.296356806229083 0.305334992298965 2.148000000000000
-0.297598524690936 0.312525764211288 2.157000000000000
-0.299254149306741 0.320208755611342 2.169000000000000
-0.295391025203197 0.321942710874081 2.141000000000000
-0.291941807253603 0.323982526049232 2.116000000000000
-0.292907588279489 0.330872557456301 2.123000000000000
-0.293735400587392 0.337642365012634 2.129000000000000
-0.294149306741343 0.343961061811086 2.132000000000000
-0.293321494433440 0.348819543638287 2.126000000000000
-0.292217744689570 0.353311510992474 2.118000000000000
-0.292355713407554 0.359285617973833 2.119000000000000
-0.292079775971587 0.364748321393531 2.117000000000000
-0.291527901099652 0.369849991504196 2.113000000000000
-0.289458370329896 0.372974200161146 2.098000000000000
-0.288768526739977 0.377821357903564 2.093000000000000
-0.287940714432074 0.382457852589576 2.087000000000000
-0.288354620586026 0.388735440658178 2.090000000000000
-0.288078683150058 0.394085780216287 2.088000000000000
-0.288078683150058 0.399808115411389 2.088000000000000
-0.287802745714091 0.405142011477557 2.086000000000000
-0.287664776996107 0.410661905362223 2.085000000000000
-0.287664776996107 0.416376018811355 2.085000000000000
-0.287112902124172 0.421280367018740 2.081000000000000
-0.286836964688204 0.426573154355059 2.079000000000000
-0.286423058534253 0.431647056889001 2.076000000000000
-0.286147121098286 0.436915178987410 2.074000000000000
-0.285181340072399 0.441105320565875 2.067000000000000
-0.284767433918448 0.446121670878028 2.064000000000000
-0.285043371354416 0.452216001710123 2.066000000000000
-0.284767433918448 0.457434793332712 2.064000000000000
-0.285181340072399 0.463764452459124 2.067000000000000
-0.284905402636432 0.468975022335743 2.065000000000000
-0.285043371354416 0.474864171275412 2.066000000000000
-0.283663684174578 0.478200336543468 2.056000000000000
-0.283249778020627 0.483128988231941 2.053000000000000
-0.282697903148692 0.487803127552167 2.049000000000000
-0.282973840584660 0.493900198966252 2.051000000000000
-0.282835871866676 0.499277582587438 2.050000000000000
-0.281594153404822 0.502679160066432 2.041000000000000
-0.281318215968855 0.507774625499471 2.039000000000000
-0.281732122122806 0.514117987535833 2.042000000000000
-0.282835871866676 0.521750354905368 2.050000000000000
-0.282697903148692 0.527111295034613 2.049000000000000
-0.282421965712725 0.532206760467653 2.047000000000000
-0.282973840584660 0.538867668258031 2.051000000000000
-0.283111809302643 0.544754076615710 2.052000000000000
-0.282421965712725 0.549036674468190 2.047000000000000
-0.281318215968855 0.552478998920211 2.039000000000000
-0.280904309814903 0.557245956271274 2.036000000000000
-0.280904309814903 0.562825781202896 2.036000000000000
-0.280904309814903 0.568405606134519 2.036000000000000
-0.280766341096920 0.573703512877995 2.035000000000000
-0.281318215968855 0.580419232308173 2.039000000000000
-0.280904309814903 0.585145080929386 2.036000000000000
-0.280766341096920 0.590434765926892 2.035000000000000
-0.280352434942968 0.595133208728206 2.032000000000000
-0.280352434942968 0.600702071331868 2.032000000000000
-0.279662591353050 0.604779125535099 2.027000000000000
-0.278834779045147 0.608527671656353 2.021000000000000
-0.278972747763131 0.614370230702192 2.022000000000000
-0.279386653917082 0.620831437764124 2.025000000000000
-0.279386653917082 0.626381116293856 2.025000000000000
-0.278696810327163 0.630370471873407 2.020000000000000
-0.278282904173212 0.634962031977111 2.017000000000000
-0.277868998019261 0.639537148588874 2.014000000000000
-0.278144935455229 0.645697253388730 2.016000000000000
-0.277731029301277 0.650253185926563 2.013000000000000
-0.277455091865310 0.655118442472443 2.011000000000000
-0.277179154429342 0.659972736690363 2.009000000000000
-0.277179154429342 0.665478565908256 2.009000000000000
-0.277868998019261 0.672654341355930 2.014000000000000
-0.277731029301277 0.677837143655827 2.013000000000000
-0.277041185711358 0.681656583151998 2.008000000000000
-0.277317123147326 0.687844093771753 2.010000000000000
-0.277731029301277 0.694387518293385 2.013000000000000
-0.277731029301277 0.699904309839237 2.013000000000000
-0.276765248275391 0.702968072219817 2.006000000000000
-0.277041185711358 0.709172026331512 2.008000000000000
-0.277317123147326 0.715386942771167 2.010000000000000
-0.277041185711358 0.720178203603317 2.008000000000000
-0.276765248275391 0.724958502107508 2.006000000000000
-0.276903216993375 0.730820245227277 2.007000000000000
-0.276213373403456 0.734486212132008 2.002000000000000
-0.275109623659586 0.737015922781362 1.994000000000000
-0.274971654941602 0.742108285875588 1.993000000000000
-0.275109623659586 0.747945363757447 1.994000000000000
-0.275385561095554 0.754165761361083 1.996000000000000
-0.274833686223619 0.758113646453961 1.992000000000000
-0.275247592377570 0.764722844943352 1.995000000000000
-0.274971654941602 0.769418185405853 1.993000000000000
-0.275385561095554 0.776046567969174 1.996000000000000
-0.274419780069667 0.778775979346974 1.989000000000000
-0.274281811351684 0.783832714875331 1.988000000000000
-0.274419780069667 0.789678014503160 1.989000000000000
-0.274833686223619 0.796328321722401 1.992000000000000
-0.275523529813537 0.803800080024994 1.997000000000000
-0.275523529813537 0.809273022259007 1.997000000000000
-0.276489310839424 0.817601859210822 2.004000000000000
-0.276489310839424 0.823093985518765 2.004000000000000
-0.275937435967489 0.826932247332043 2.000000000000000
-0.275385561095554 0.830748584489402 1.996000000000000
-0.274833686223619 0.834542996990841 1.992000000000000
-0.275247592377570 0.841267299923812 1.995000000000000
-0.274971654941602 0.845885904090593 1.993000000000000
-0.274971654941602 0.851347883996646 1.993000000000000
-0.274143842633700 0.854230406209062 1.987000000000000
-0.273591967761765 0.857945341832792 1.983000000000000
-0.272902124171846 0.861202962021015 1.978000000000000
-0.273453999043781 0.868376358643521 1.982000000000000
-0.274695717505635 0.877776039639778 1.991000000000000
-0.274833686223619 0.883676150907407 1.992000000000000
-0.273867905197732 0.886010918478648 1.985000000000000
-0.272488218017895 0.886960036833422 1.975000000000000
-0.273453999043781 0.895535526164336 1.982000000000000
-0.274005873915716 0.902785659082563 1.986000000000000
-0.274281811351684 0.909143085785697 1.988000000000000
-0.274005873915716 0.913671250746809 1.986000000000000
-0.273178061607814 0.916337266982016 1.980000000000000
-0.272626186735879 0.919901470596296 1.976000000000000
-0.272350249299911 0.924380305081587 1.974000000000000
-0.272902124171846 0.931674287311653 1.978000000000000
-0.272488218017895 0.935673881705519 1.975000000000000
-0.272488218017895 0.941086531135752 1.975000000000000
-0.272488218017895 0.946499180565985 1.975000000000000
-0.273178061607814 0.954321733363297 1.980000000000000
-0.273316030325797 0.960232806958886 1.981000000000000
-0.274419780069667 0.969561594580225 1.989000000000000
-0.274281811351684 0.974522409738932 1.988000000000000
-0.274557748787651 0.980956572737787 1.990000000000000
-0.274143842633700 0.984923280147772 1.987000000000000
-0.275109623659586 0.993857785719375 1.994000000000000
-0.274695717505635 0.997819011965381 1.991000000000000
-0.275523529813537 1.006298942683468 1.997000000000000
-0.274971654941602 1.009745301272178 1.993000000000000
-0.275523529813537 1.017244827151494 1.997000000000000
-0.275523529813537 1.022717769385507 1.997000000000000
-0.276213373403456 1.030765049905998 2.002000000000000
-0.275799467249505 1.034698870332104 1.999000000000000
-0.275937435967489 1.040697642551372 2.000000000000000
-0.276213373403456 1.047224985337886 2.002000000000000
-0.277593060583293 1.057969930334406 2.012000000000000
-0.278006966737245 1.065069693000005 2.015000000000000
-0.278144935455229 1.071123276859074 2.016000000000000
-0.278282904173212 1.077182341882122 2.017000000000000
-0.278420872891196 1.083246888069150 2.018000000000000
-0.278006966737245 1.087158783839336 2.015000000000000
-0.277179154429342 1.089427415685995 2.009000000000000
-0.277041185711358 1.094388230844702 2.008000000000000
-0.277593060583293 1.102082338045307 2.012000000000000
-0.276765248275391 1.104293417670176 2.006000000000000
-0.276351342121440 1.108131317726632 2.003000000000000
-0.276351342121440 1.113620703452585 2.003000000000000
-0.277041185711358 1.121903674024216 2.008000000000000
-0.277317123147326 1.128529677762370 2.010000000000000
-0.277455091865310 1.134602445695368 2.011000000000000
