# This PCD file was generated using the MATLAB® pcwrite function
# from Computer Vision Toolbox®.
# .PCD v.7 - Point Cloud Data file format
VERSION .7
FIELDS x y z
SIZE 8 8 8
TYPE F F F
COUNT 1 1 1
WIDTH 861
HEIGHT 1
VIEWPOINT 0 0 0 1 0 0 0
POINTS 861
DATA ascii
-0.675605491428181 -0.735505653820645 2.763000000000000
-0.675850010245202 -0.728196883410161 2.764000000000000
-0.676339047879243 -0.721143348881568 2.766000000000000
-0.677317123147326 -0.714594804952780 2.770000000000000
-0.678784236049450 -0.708534808131855 2.776000000000000
-0.678784236049450 -0.700926952527639 2.776000000000000
-0.677806160781367 -0.692320078051775 2.772000000000000
-0.675850010245202 -0.682747071688144 2.764000000000000
-0.673404822074995 -0.672729367528488 2.754000000000000
-0.671693190355850 -0.663491073924458 2.747000000000000
-0.673893859709036 -0.658111826707520 2.756000000000000
-0.674871934977119 -0.651502989974951 2.760000000000000
-0.675850010245202 -0.644872228586463 2.764000000000000
-0.675116453794140 -0.636605548034181 2.761000000000000
-0.675850010245202 -0.629722291345790 2.764000000000000
-0.675360972611161 -0.621697143765450 2.762000000000000
-0.674382897343078 -0.613238260717046 2.758000000000000
-0.672671265623933 -0.604142477376496 2.751000000000000
-0.672671265623933 -0.596603136322029 2.751000000000000
-0.672915784440954 -0.589277922419605 2.752000000000000
-0.672426746806912 -0.581313067643045 2.750000000000000
-0.671204152721809 -0.572733237230258 2.745000000000000
-0.670959633904788 -0.565004434261660 2.744000000000000
-0.672671265623933 -0.558906431049698 2.751000000000000
-0.673160303257974 -0.551767938479416 2.753000000000000
-0.667780889283519 -0.539874075738724 2.731000000000000
-0.661667918858001 -0.527515969371256 2.706000000000000
-0.671448671538829 -0.527788054351222 2.746000000000000
-0.674871934977119 -0.522914883004555 2.760000000000000
-0.677072604330305 -0.517031368701457 2.769000000000000
-0.679517792500512 -0.511282504672692 2.779000000000000
-0.675360972611161 -0.500585344463750 2.762000000000000
-0.669003483368622 -0.488374867766919 2.736000000000000
-0.676094529062223 -0.485973646563584 2.765000000000000
-0.658000136602691 -0.465592574119040 2.691000000000000
-0.653354279079298 -0.454982389020132 2.672000000000000
-0.656043986066526 -0.449502463783209 2.683000000000000
-0.657022061334608 -0.442808669008951 2.687000000000000
-0.659222730687795 -0.436903230049933 2.696000000000000
-0.661423400040981 -0.430948460615096 2.705000000000000
-0.663624069394167 -0.424944360704439 2.714000000000000
-0.660445324772898 -0.415506574656194 2.701000000000000
-0.656777542517588 -0.405837856207144 2.686000000000000
-0.654332354347381 -0.396993121139205 2.676000000000000
-0.656288504883546 -0.390824224552326 2.684000000000000
-0.656777542517588 -0.383754246531794 2.686000000000000
-0.656288504883546 -0.376112780430052 2.684000000000000
-0.654576873164401 -0.367795322374660 2.677000000000000
-0.653109760262277 -0.359650882741459 2.671000000000000
-0.648219383921863 -0.349692594399347 2.651000000000000
-0.646018714568677 -0.341264789550709 2.642000000000000
-0.643573526398470 -0.332759886649529 2.632000000000000
-0.644796120483574 -0.326165114583733 2.637000000000000
-0.644307082849532 -0.318696305147361 2.635000000000000
-0.642106413496346 -0.310411010562203 2.626000000000000
-0.639661225326139 -0.302059580252462 2.616000000000000
-0.638683150058056 -0.294439315292996 2.612000000000000
-0.635748924253808 -0.285961094698070 2.600000000000000
-0.634037292534663 -0.278084870343066 2.593000000000000
-0.633548254900622 -0.270769533498134 2.591000000000000
-0.633303736083601 -0.263566922271614 2.590000000000000
-0.633303736083601 -0.256468814917536 2.590000000000000
-0.633059217266580 -0.249274425436986 2.589000000000000
-0.631592104364456 -0.241617809398004 2.583000000000000
-0.628657878560208 -0.233449274567947 2.571000000000000
-0.626946246841063 -0.225786815608163 2.564000000000000
-0.625968171572980 -0.218418684191775 2.560000000000000
-0.625723652755959 -0.211320215080875 2.559000000000000
-0.623767502219794 -0.203668356692227 2.551000000000000
-0.623767502219794 -0.196677132035759 2.551000000000000
-0.622544908134690 -0.189314120026529 2.546000000000000
-0.619610682330442 -0.181477195617261 2.534000000000000
-0.614964824807049 -0.173223911029746 2.515000000000000
-0.611786080185780 -0.165471582905346 2.502000000000000
-0.611541561368759 -0.158551251623795 2.501000000000000
-0.611541561368759 -0.151697056066826 2.501000000000000
-0.610808004917697 -0.144669118574020 2.498000000000000
-0.608851854381531 -0.137381757590042 2.490000000000000
-0.606895703845366 -0.130138245917903 2.482000000000000
-0.604450515675159 -0.122839199092319 2.472000000000000
-0.603227921590055 -0.115829722159798 2.467000000000000
-0.601516289870910 -0.108759228909851 2.460000000000000
-0.601760808687931 -0.102058867701145 2.461000000000000
-0.601271771053890 -0.095236835614411 2.459000000000000
-0.601516289870910 -0.088533733823715 2.460000000000000
-0.599804658151766 -0.081559160943418 2.453000000000000
-0.599071101700704 -0.074744988845831 2.450000000000000
-0.596625913530497 -0.067752887203126 2.440000000000000
-0.595647838262414 -0.060965759168617 2.436000000000000
-0.594914281811352 -0.054222842202770 2.433000000000000
-0.594914281811352 -0.047555006221121 2.433000000000000
-0.594669762994331 -0.040870364990709 2.432000000000000
-0.593447168909228 -0.034134946257187 2.427000000000000
-0.593202650092207 -0.027472229682695 2.426000000000000
-0.592958131275186 -0.020814994272184 2.425000000000000
-0.592713612458165 -0.014163240025652 2.424000000000000
-0.591980056007103 -0.007510762265475 2.421000000000000
-0.591491018373062 -0.000875089754060 2.419000000000000
-0.591001980739021 0.005749620429394 2.417000000000000
-0.591001980739021 0.012373607099204 2.417000000000000
-0.591491018373062 0.019013313747307 2.419000000000000
-0.591980056007103 0.025663982723371 2.421000000000000
-0.592469093641145 0.032325614027395 2.423000000000000
-0.592713612458165 0.038982125924261 2.424000000000000
-0.592958131275186 0.045644118985108 2.425000000000000
-0.592713612458165 0.052268467411740 2.424000000000000
-0.592713612458165 0.058911638155479 2.424000000000000
-0.592958131275186 0.065581852962295 2.425000000000000
-0.592713612458165 0.072197979642957 2.424000000000000
-0.592469093641145 0.078808625159639 2.423000000000000
-0.592469093641145 0.085449055321388 2.423000000000000
-0.592958131275186 0.092165498265212 2.425000000000000
-0.593447168909228 0.098892903536995 2.427000000000000
-0.594180725360290 0.105674758691756 2.430000000000000
-0.594180725360290 0.112334372927435 2.430000000000000
-0.593447168909228 0.118847081006122 2.427000000000000
-0.593691687726248 0.125550182796819 2.428000000000000
-0.593936206543269 0.132258765751495 2.429000000000000
-0.593936206543269 0.138915639405184 2.429000000000000
-0.593447168909228 0.145452650964959 2.427000000000000
-0.592469093641145 0.151853356938879 2.423000000000000
-0.592958131275186 0.158624611522503 2.425000000000000
-0.591491018373062 0.164861606090669 2.419000000000000
-0.591980056007103 0.171632860674293 2.421000000000000
-0.591735537190083 0.178194175715155 2.420000000000000
-0.591980056007103 0.184902758669831 2.421000000000000
-0.590023905470938 0.190904786700504 2.413000000000000
-0.589045830202855 0.197190388230845 2.409000000000000
-0.587823236117752 0.203369468820399 2.404000000000000
-0.587823236117752 0.209957827924338 2.404000000000000
-0.587334198483710 0.216366032130583 2.402000000000000
-0.586600642032648 0.222670455978031 2.399000000000000
-0.585867085581586 0.228958436333540 2.396000000000000
-0.584889010313503 0.235131674002291 2.392000000000000
-0.584889010313503 0.241687146122350 2.392000000000000
-0.584155453862441 0.247931277166019 2.389000000000000
-0.583666416228400 0.254265485658534 2.387000000000000
-0.582688340960317 0.260370208777536 2.383000000000000
-0.581465746875214 0.266341005135851 2.378000000000000
-0.579265077522027 0.271825424927238 2.369000000000000
-0.578042483436924 0.277730447317792 2.364000000000000
-0.577553445802882 0.283968735440658 2.362000000000000
-0.577308926985862 0.290319025668291 2.361000000000000
-0.576819889351820 0.296538129717227 2.359000000000000
-0.576086332900758 0.302617825841496 2.356000000000000
-0.575352776449696 0.308681078473825 2.353000000000000
-0.574619219998634 0.314727887614214 2.350000000000000
-0.573641144730551 0.320621585919986 2.346000000000000
-0.573152107096510 0.326772175419172 2.344000000000000
-0.572418550645448 0.332769654083741 2.341000000000000
-0.571929513011406 0.338895578345017 2.339000000000000
-0.571195956560344 0.344862910607697 2.336000000000000
-0.569973362475241 0.350513058873182 2.331000000000000
-0.568750768390137 0.356135801318768 2.326000000000000
-0.569484324841199 0.362977949277308 2.329000000000000
-0.569239806024179 0.369202172733402 2.328000000000000
-0.568995287207158 0.375420915025515 2.327000000000000
-0.567283655488013 0.380649737178187 2.320000000000000
-0.567039136670992 0.386841073650400 2.319000000000000
-0.566550099036951 0.392857374632077 2.317000000000000
-0.565816542585889 0.398690418377247 2.314000000000000
-0.565572023768868 0.404857089611550 2.313000000000000
-0.565572023768868 0.411196055754400 2.313000000000000
-0.565327504951848 0.417354505242733 2.312000000000000
-0.565082986134827 0.423507473567087 2.311000000000000
-0.564838467317806 0.429654960727460 2.310000000000000
-0.563615873232703 0.435042013121906 2.305000000000000
-0.563126835598661 0.440976096643883 2.303000000000000
-0.562148760330579 0.446510778708967 2.299000000000000
-0.562637797964620 0.453205296996870 2.301000000000000
-0.562637797964620 0.459511376155840 2.301000000000000
-0.562637797964620 0.465817455314811 2.301000000000000
-0.563615873232703 0.472944262043488 2.305000000000000
-0.564349429683765 0.479885070953668 2.308000000000000
-0.563860392049723 0.485789008073755 2.306000000000000
-0.562637797964620 0.491041771950691 2.301000000000000
-0.559459053343351 0.494537976244635 2.288000000000000
-0.557502902807185 0.499057349418723 2.280000000000000
-0.557013865173144 0.504862625587170 2.278000000000000
-0.559214534526330 0.513124965057580 2.287000000000000
-0.559948090977392 0.520073995713730 2.290000000000000
-0.560926166245475 0.527269316992156 2.294000000000000
-0.560681647428454 0.533323624364870 2.293000000000000
-0.560437128611434 0.539372450573604 2.292000000000000
-0.558970015709309 0.544225451236825 2.286000000000000
-0.554079639368896 0.545674232500014 2.266000000000000
-0.552612526466772 0.550423091047615 2.260000000000000
-0.555546752271020 0.559572293812314 2.272000000000000
-0.557258383990165 0.567542114523440 2.279000000000000
-0.556524827539103 0.573032585519861 2.276000000000000
-0.555546752271020 0.578252100656095 2.272000000000000
-0.555302233453999 0.584221449987119 2.271000000000000
-0.554568677002937 0.589665331089710 2.268000000000000
-0.554568677002937 0.595880971043011 2.268000000000000
-0.554813195819958 0.602362085692518 2.269000000000000
-0.555057714636978 0.608848681506005 2.270000000000000
-0.555302233453999 0.615340758483471 2.271000000000000
-0.554324158185916 0.620469834414036 2.267000000000000
-0.554079639368896 0.626406296761180 2.266000000000000
-0.554079639368896 0.632616455550501 2.266000000000000
-0.554813195819958 0.639672368904260 2.269000000000000
-0.554568677002937 0.645606090669415 2.268000000000000
-0.554324158185916 0.651534331270589 2.267000000000000
-0.553590601734854 0.656876810839550 2.264000000000000
-0.553835120551875 0.663374368980997 2.265000000000000
-0.554079639368896 0.669877408286424 2.266000000000000
-0.554079639368896 0.676087567075744 2.266000000000000
-0.554324158185916 0.682598828127141 2.267000000000000
-0.554079639368896 0.688507884654385 2.266000000000000
-0.554079639368896 0.694718043443706 2.266000000000000
-0.554079639368896 0.700928202233026 2.266000000000000
-0.553835120551875 0.706826296432310 2.265000000000000
-0.553590601734854 0.712718909467615 2.264000000000000
-0.553590601734854 0.718923587092955 2.264000000000000
-0.554568677002937 0.726409410062321 2.268000000000000
-0.554813195819958 0.732948076933618 2.269000000000000
-0.554568677002937 0.738840689968922 2.268000000000000
-0.554324158185916 0.744727821840246 2.267000000000000
-0.554813195819958 0.751603218539489 2.269000000000000
-0.554813195819958 0.757821599074779 2.269000000000000
-0.554568677002937 0.763703249782124 2.268000000000000
-0.554324158185916 0.769579419325488 2.267000000000000
-0.554324158185916 0.775792318696798 2.267000000000000
-0.555057714636978 0.783040072789858 2.270000000000000
-0.555302233453999 0.789608886063044 2.271000000000000
-0.555791271088040 0.796533613238107 2.273000000000000
-0.555546752271020 0.802409782781471 2.272000000000000
-0.556035789905061 0.809348212866484 2.274000000000000
-0.555546752271020 0.814862987343992 2.272000000000000
-0.555302233453999 0.820728194559396 2.271000000000000
-0.554813195819958 0.826223784962975 2.269000000000000
-0.555302233453999 0.833175917957938 2.271000000000000
-0.556035789905061 0.840508630092686 2.274000000000000
-0.556035789905061 0.846740713537927 2.274000000000000
-0.556035789905061 0.852972796983167 2.274000000000000
-0.555791271088040 0.858827041870612 2.273000000000000
-0.556280308722082 0.865817543013434 2.275000000000000
-0.556524827539103 0.872435686762441 2.276000000000000
-0.556769346356123 0.879059311675427 2.277000000000000
-0.557258383990165 0.886077218638150 2.279000000000000
-0.558236459258247 0.893889170864325 2.283000000000000
-0.558725496892289 0.900934483646947 2.285000000000000
-0.558480978075268 0.906799690862351 2.284000000000000
-0.558970015709309 0.913858706554924 2.286000000000000
-0.559948090977392 0.921733692166869 2.290000000000000
-0.561170685062496 0.930035846812429 2.295000000000000
-0.561659722696537 0.937141452398831 2.297000000000000
-0.562882316781641 0.945490196938222 2.302000000000000
-0.563615873232703 0.953039415050180 2.305000000000000
-0.564349429683765 0.960605076654078 2.308000000000000
-0.564593948500786 0.967349287174624 2.309000000000000
-0.565327504951848 0.974942354598422 2.312000000000000
-0.565327504951848 0.981278580159282 2.312000000000000
-0.566550099036951 0.989750650888223 2.317000000000000
-0.567039136670992 0.996960398590245 2.319000000000000
-0.567283655488013 1.003748458422630 2.320000000000000
-0.567528174305034 1.010541999418997 2.321000000000000
-0.568261730756096 1.018217284302494 2.324000000000000
-0.568995287207158 1.025909012677932 2.327000000000000
-0.568506249573117 1.031399121917530 2.325000000000000
-0.567772693122055 1.036431915721622 2.322000000000000
-0.567528174305034 1.042346453412847 2.321000000000000
-0.567528174305034 1.048707344211617 2.321000000000000
-0.567528174305034 1.055068235010387 2.321000000000000
-0.567772693122055 1.061886441244663 2.322000000000000
-0.568017211939075 1.068710128642919 2.323000000000000
-0.568017211939075 1.075076500605668 2.323000000000000
-0.567772693122055 1.080977335386943 2.322000000000000
-0.567528174305034 1.086872689004237 2.321000000000000
-0.567528174305034 1.093233579803007 2.321000000000000
-0.567283655488013 1.099120711674331 2.320000000000000
-0.566550099036951 1.104049363362804 2.317000000000000
-0.567039136670992 1.111357772016465 2.319000000000000
-0.567039136670992 1.117713181651255 2.319000000000000
-0.567528174305034 1.125038033796857 2.321000000000000
-0.567283655488013 1.130911462758231 2.320000000000000
-0.568017211939075 1.138740220233169 2.323000000000000
-0.568017211939075 1.145106592195918 2.323000000000000
-0.568017211939075 1.151472964158669 2.323000000000000
-0.567528174305034 1.156842487790707 2.321000000000000
-0.567772693122055 1.163704543336823 2.322000000000000
-0.567039136670992 1.168556458729576 2.319000000000000
-0.567039136670992 1.174911868364366 2.319000000000000
-0.566794617853972 1.180757891505840 2.318000000000000
-0.567039136670992 1.187622687633946 2.319000000000000
-0.567283655488013 1.194492964926031 2.320000000000000
-0.567039136670992 1.200333506903526 2.319000000000000
-0.566550099036951 1.205648218895765 2.317000000000000
-0.565572023768868 1.209905789753512 2.313000000000000
-0.565082986134827 1.215193095925851 2.311000000000000
-0.564349429683765 1.219940869202984 2.308000000000000
-0.564838467317806 1.227328754734355 2.310000000000000
-0.564593948500786 1.233125447400010 2.309000000000000
-0.564593948500786 1.239453451214900 2.309000000000000
-0.564349429683765 1.245241922134584 2.308000000000000
-0.564104910866744 1.251024911890289 2.307000000000000
-0.564104910866744 1.257347434541199 2.307000000000000
-0.563860392049723 1.263122202550934 2.306000000000000
-0.563860392049723 1.269441984619854 2.306000000000000
-0.564838467317806 1.277974709909396 2.310000000000000
-0.565572023768868 1.285973383467713 2.313000000000000
-0.565572023768868 1.292312349610563 2.313000000000000
-0.565572023768868 1.298651315753413 2.313000000000000
-0.566550099036951 1.307247074428726 2.317000000000000
-0.566794617853972 1.314163941614641 2.318000000000000
-0.568017211939075 1.323365007152919 2.323000000000000
-0.568750768390137 1.331448638752926 2.326000000000000
-0.569239806024179 1.338973553383796 2.328000000000000
-0.568995287207158 1.344775727213431 2.327000000000000
-0.569728843658220 1.352894986379307 2.330000000000000
-0.571195956560344 1.362780835658260 2.336000000000000
-0.571929513011406 1.370941203553987 2.339000000000000
-0.572907588279489 1.379706878312678 2.343000000000000
-0.572663069462468 1.385536457962213 2.342000000000000
-0.573641144730551 1.394332279122795 2.346000000000000
-0.574863738815655 1.403747110056291 2.351000000000000
-0.576819889351820 1.414988823906645 2.359000000000000
-0.577308926985862 1.422658989382985 2.361000000000000
-0.663462878218701 -0.880851027444188 2.744000000000000
-0.664671812034697 -0.874922216801960 2.749000000000000
-0.667089679666689 -0.870543643768190 2.759000000000000
-0.666606106140291 -0.862356801850441 2.757000000000000
-0.665880745850693 -0.853870874738960 2.754000000000000
-0.665638959087494 -0.846016004998822 2.753000000000000
-0.666122532613893 -0.839080315495799 2.755000000000000
-0.666606106140291 -0.832133663664816 2.757000000000000
-0.666364319377092 -0.824278793924678 2.756000000000000
-0.666364319377092 -0.816725749960262 2.756000000000000
-0.665880745850693 -0.808585497936342 2.754000000000000
-0.666122532613893 -0.801328798583667 2.755000000000000
-0.665397172324295 -0.792914126603926 2.752000000000000
-0.665880745850693 -0.785942809535033 2.754000000000000
-0.665880745850693 -0.778395246734596 2.754000000000000
-0.666847892903490 -0.771967288413367 2.758000000000000
-0.666364319377092 -0.763854442209348 2.756000000000000
-0.666847892903490 -0.756850238156575 2.758000000000000
-0.666364319377092 -0.748748354280515 2.756000000000000
-0.667331466429889 -0.742271065483466 2.760000000000000
-0.667089679666689 -0.734440860981238 2.759000000000000
-0.667331466429889 -0.727143052898714 2.760000000000000
-0.667573253193088 -0.719839763652209 2.761000000000000
-0.669023973772283 -0.713820875561134 2.767000000000000
-0.670232907588280 -0.707513864604287 2.772000000000000
-0.669991120825080 -0.699664476028129 2.771000000000000
-0.668298613482686 -0.690322040308480 2.764000000000000
-0.666364319377092 -0.680770958600769 2.756000000000000
-0.665880745850693 -0.672729367528488 2.754000000000000
-0.664188238508299 -0.663491073924458 2.747000000000000
-0.665638959087494 -0.657395449537664 2.753000000000000
-0.666364319377092 -0.650558782743103 2.756000000000000
-0.667331466429889 -0.643938983682575 2.760000000000000
-0.665880745850693 -0.634991553526307 2.754000000000000
-0.666606106140291 -0.628127480911846 2.757000000000000
-0.666122532613893 -0.620121517405436 2.755000000000000
-0.665638959087494 -0.612126516226986 2.753000000000000
-0.663946451745099 -0.603044435796386 2.746000000000000
-0.663462878218701 -0.595085062183805 2.744000000000000
-0.663704664981900 -0.587779032355311 2.745000000000000
-0.663946451745099 -0.580467521362837 2.746000000000000
-0.662737517929103 -0.571898653278010 2.741000000000000
-0.661770370876306 -0.563563096419156 2.737000000000000
-0.662253944402705 -0.556468453160713 2.739000000000000
-0.663704664981900 -0.550164544542679 2.745000000000000
-0.657176422375521 -0.537304188157397 2.718000000000000
-0.636624547503586 -0.513285124669075 2.633000000000000
-0.654516767980329 -0.520292157002461 2.707000000000000
-0.654758554743529 -0.513062863469686 2.708000000000000
-0.662979304692302 -0.511989892733621 2.742000000000000
-0.667815039956287 -0.508154831920107 2.762000000000000
-0.662253944402705 -0.496416820596022 2.739000000000000
-0.651131753295540 -0.473318998262471 2.693000000000000
-0.641943856293969 -0.459363910920123 2.655000000000000
-0.646054231268356 -0.454982389020132 2.672000000000000
-0.647988525373950 -0.448999852008573 2.680000000000000
-0.649197459189946 -0.442479075656506 2.685000000000000
-0.650889966532341 -0.436255005673005 2.692000000000000
-0.651615326821938 -0.429355305492674 2.695000000000000
-0.652340687111536 -0.422439161820404 2.698000000000000
-0.650164606242743 -0.413660562477048 2.689000000000000
-0.645812444505157 -0.403571449713061 2.671000000000000
-0.643394576873164 -0.394767823374972 2.661000000000000
-0.643878150399563 -0.387766359904189 2.663000000000000
-0.645570657741958 -0.381468294206958 2.670000000000000
-0.645087084215559 -0.373870677417056 2.668000000000000
-0.643394576873164 -0.365597068673504 2.661000000000000
-0.639525988661977 -0.356149975608820 2.645000000000000
-0.635899187213988 -0.346922490860159 2.630000000000000
-0.634448466634793 -0.338939745564368 2.624000000000000
-0.631063451950003 -0.329978459025559 2.610000000000000
-0.631305238713203 -0.322949227978053 2.611000000000000
-0.630096304897206 -0.315188831580274 2.606000000000000
-0.629129157844410 -0.307574047784788 2.602000000000000
-0.627678437265214 -0.299750256244416 2.596000000000000
-0.625985929922820 -0.291846626069512 2.589000000000000
-0.624535209343624 -0.284091349078890 2.583000000000000
-0.623809849054026 -0.276690692435446 2.580000000000000
-0.623809849054026 -0.269619990901268 2.580000000000000
-0.623568062290827 -0.262447526076638 2.579000000000000
-0.622359128474831 -0.254884451582138 2.574000000000000
-0.622359128474831 -0.247830193539900 2.574000000000000
-0.622117341711632 -0.240682393953180 2.573000000000000
-0.620183047606038 -0.232904468792993 2.565000000000000
-0.618490540263643 -0.225258453325148 2.558000000000000
-0.616072672631651 -0.217394846609626 2.548000000000000
-0.615589099105253 -0.210246685266083 2.546000000000000
-0.614621952052456 -0.202949808981435 2.542000000000000
-0.613896591762858 -0.195751955405250 2.539000000000000
-0.612687657946862 -0.188421830379900 2.534000000000000
-0.610269790314869 -0.180761026731637 2.524000000000000
-0.606884775630080 -0.172879529496884 2.510000000000000
-0.604708694761287 -0.165405447180763 2.501000000000000
-0.604466907998088 -0.158487856481202 2.500000000000000
-0.603983334471689 -0.151515092385019 2.498000000000000
-0.602049040366095 -0.144205806745120 2.490000000000000
-0.600840106550099 -0.137105890606929 2.485000000000000
-0.599631172734103 -0.130033380288638 2.480000000000000
-0.597455091865310 -0.122789506859677 2.471000000000000
-0.595762584522915 -0.115688867207840 2.464000000000000
-0.593828290417321 -0.108582384635201 2.456000000000000
-0.593586503654122 -0.101810044781110 2.455000000000000
-0.593344716890923 -0.095043186090998 2.454000000000000
-0.593586503654122 -0.088353787210252 2.455000000000000
-0.592861143364524 -0.081525912202715 2.452000000000000
-0.591893996311727 -0.074683972528406 2.448000000000000
-0.589717915442934 -0.067725119626404 2.439000000000000
-0.589234341916536 -0.060990786163350 2.437000000000000
-0.587783621337340 -0.054178269377285 2.431000000000000
-0.588267194863739 -0.047555006221121 2.433000000000000
-0.587300047810942 -0.040819949244422 2.429000000000000
-0.586332900758145 -0.034106816923642 2.425000000000000
-0.585849327231746 -0.027438257428348 2.423000000000000
-0.585607540468547 -0.020789243763806 2.422000000000000
-0.585607540468547 -0.014151554184047 2.422000000000000
-0.584882180178950 -0.007504557587849 2.419000000000000
-0.584398606652551 -0.000874366240415 2.417000000000000
-0.584156819889352 0.005747241604227 2.416000000000000
-0.584640393415750 0.012378726506361 2.418000000000000
-0.585123966942149 0.019021173736455 2.420000000000000
-0.584640393415750 0.025632181009959 2.418000000000000
-0.585123966942149 0.032285590568013 2.420000000000000
-0.584882180178950 0.038901717248675 2.419000000000000
-0.585607540468547 0.045587652033786 2.422000000000000
-0.585123966942149 0.052182215815351 2.420000000000000
-0.585365753705348 0.058838727712217 2.421000000000000
-0.585123966942149 0.065446632646909 2.420000000000000
-0.584640393415750 0.072019271772554 2.418000000000000
-0.584640393415750 0.078645999024353 2.418000000000000
-0.585365753705348 0.085378523703294 2.421000000000000
-0.586332900758145 0.092165498265212 2.425000000000000
-0.586574687521344 0.098852156563968 2.426000000000000
-0.586816474284543 0.105544296026704 2.427000000000000
-0.586816474284543 0.112195688516413 2.427000000000000
-0.585849327231746 0.118651206130134 2.423000000000000
-0.586332900758145 0.125395054893857 2.425000000000000
-0.585849327231746 0.131932066453632 2.423000000000000
-0.585849327231746 0.138572496615381 2.423000000000000
-0.585123966942149 0.145033133636259 2.420000000000000
-0.584882180178950 0.151602670423091 2.419000000000000
-0.584882180178950 0.158232138256880 2.419000000000000
-0.584398606652551 0.164725300504815 2.417000000000000
-0.584640393415750 0.171420180549541 2.418000000000000
-0.584156819889352 0.177899639887526 2.416000000000000
-0.583673246362953 0.184368136897552 2.414000000000000
-0.582222525783758 0.190509211096068 2.408000000000000
-0.581497165494160 0.196862965419336 2.405000000000000
-0.580771805204563 0.203200276250665 2.402000000000000
-0.580771805204563 0.209783154190624 2.402000000000000
-0.580288231678164 0.216185877232889 2.400000000000000
-0.579562871388566 0.222484819916357 2.397000000000000
-0.578595724335769 0.228671760495059 2.393000000000000
-0.577870364046172 0.234935075612657 2.390000000000000
-0.577145003756574 0.241181947238315 2.387000000000000
-0.576903216993375 0.247619936089628 2.386000000000000
-0.576177856703777 0.253839401895386 2.383000000000000
-0.575694283177379 0.260151685731982 2.381000000000000
-0.574001775834984 0.265892996716783 2.374000000000000
-0.572067481729390 0.271481196866967 2.366000000000000
-0.570858547913394 0.277377997511552 2.361000000000000
-0.570616761150195 0.283728287739184 2.360000000000000
-0.570616761150195 0.290196061235564 2.360000000000000
-0.570133187623796 0.296412424702510 2.358000000000000
-0.568682467044601 0.302104043454668 2.352000000000000
-0.567715319991804 0.308025147580340 2.348000000000000
-0.566748172939007 0.313924327050092 2.344000000000000
-0.565781025886210 0.319801581863925 2.340000000000000
-0.565297452359812 0.325935727871171 2.338000000000000
-0.564813878833413 0.332058911550457 2.336000000000000
-0.565055665596612 0.338605800167724 2.337000000000000
-0.564088518543815 0.344420021595786 2.333000000000000
-0.562637797964620 0.349911577862675 2.327000000000000
-0.562154224438221 0.355982690484151 2.325000000000000
-0.562637797964620 0.362666246444095 2.327000000000000
-0.562154224438221 0.368726396737611 2.325000000000000
-0.561187077385425 0.374452919541994 2.321000000000000
-0.560219930332628 0.380157517690457 2.317000000000000
-0.559494570043030 0.386007004927566 2.314000000000000
-0.559252783279831 0.392179157325850 2.313000000000000
-0.559010996516631 0.398345828560153 2.312000000000000
-0.559252783279831 0.404857089611550 2.313000000000000
-0.559252783279831 0.411196055754400 2.313000000000000
-0.559010996516631 0.417354505242733 2.312000000000000
-0.558769209753432 0.423507473567087 2.311000000000000
-0.558043849463834 0.429282965090466 2.308000000000000
-0.557560275937436 0.435230751522393 2.306000000000000
-0.556834915647838 0.440976096643883 2.303000000000000
-0.556351342121440 0.446899217837900 2.301000000000000
-0.556109555358241 0.453008336850414 2.300000000000000
-0.555625981831842 0.458912273970500 2.298000000000000
-0.555867768595041 0.465412572693937 2.299000000000000
-0.556834915647838 0.472533898258634 2.303000000000000
-0.557318489174237 0.479261303530418 2.305000000000000
-0.556593128884639 0.484946355848128 2.302000000000000
-0.553691687726248 0.488694331928328 2.290000000000000
-0.553933474489448 0.495186408905795 2.291000000000000
-0.551999180383854 0.499714003825852 2.283000000000000
-0.550306673041459 0.504419374818436 2.276000000000000
-0.549339525988662 0.509759475562230 2.272000000000000
-0.551515606857455 0.518030036778610 2.281000000000000
-0.551757393620654 0.524511151428117 2.282000000000000
-0.556109555358241 0.534951738351156 2.300000000000000
-0.554175261252647 0.539372450573604 2.292000000000000
-0.550306673041459 0.541844762473759 2.276000000000000
-0.547888805409467 0.545674232500014 2.266000000000000
-0.545229151014275 0.549205340846182 2.255000000000000
-0.550548459804658 0.560803746923697 2.277000000000000
-0.551032033331057 0.567542114523440 2.279000000000000
-0.550548459804658 0.573284357306117 2.277000000000000
-0.549339525988662 0.578252100656095 2.272000000000000
-0.548855952462264 0.583964197036883 2.270000000000000
-0.548130592172666 0.589405337557484 2.267000000000000
-0.548130592172666 0.595618236928794 2.267000000000000
-0.548130592172666 0.601831136300105 2.267000000000000
-0.548130592172666 0.608044035671415 2.267000000000000
-0.548372378935865 0.614527890902912 2.268000000000000
-0.547405231883068 0.619648745087507 2.264000000000000
-0.546921658356670 0.625300548664514 2.262000000000000
-0.546679871593470 0.631220567519718 2.261000000000000
-0.547647018646267 0.638544696151675 2.265000000000000
-0.547647018646267 0.644752114359005 2.265000000000000
-0.547405231883068 0.650672133214209 2.264000000000000
-0.546679871593470 0.656006391037201 2.261000000000000
-0.546921658356670 0.662495727432677 2.262000000000000
-0.547163445119869 0.668990544992134 2.263000000000000
-0.547647018646267 0.675789205395658 2.265000000000000
-0.547405231883068 0.681695521340912 2.264000000000000
-0.547405231883068 0.687900198966252 2.264000000000000
-0.547405231883068 0.694104876591593 2.264000000000000
-0.547888805409467 0.700928202233026 2.266000000000000
-0.547647018646267 0.706826296432310 2.265000000000000
-0.547647018646267 0.713033714639641 2.265000000000000
-0.547647018646267 0.719241132846971 2.265000000000000
-0.548372378935865 0.726409410062321 2.268000000000000
-0.548614165699064 0.732948076933618 2.269000000000000
-0.548130592172666 0.738514922468935 2.267000000000000
-0.547647018646267 0.744070805676293 2.265000000000000
-0.548130592172666 0.750940721211556 2.267000000000000
-0.548372378935865 0.757487609828823 2.268000000000000
-0.548614165699064 0.764039979610070 2.269000000000000
-0.548372378935865 0.769918889735424 2.268000000000000
-0.548614165699064 0.776476740680651 2.269000000000000
-0.549097739225463 0.783385024363774 2.271000000000000
-0.549581312751861 0.790304270374857 2.273000000000000
-0.550306673041459 0.797584911451796 2.276000000000000
-0.549823099515060 0.803116129421244 2.274000000000000
-0.549823099515060 0.809348212866484 2.274000000000000
-0.549339525988662 0.814862987343992 2.272000000000000
-0.549339525988662 0.821089589625253 2.272000000000000
-0.548855952462264 0.826587920610821 2.270000000000000
-0.549581312751861 0.833909670417610 2.273000000000000
-0.550306673041459 0.841247863716339 2.276000000000000
-0.550306673041459 0.847485428325559 2.276000000000000
-0.550790246567857 0.854473188886392 2.278000000000000
-0.550548459804658 0.860338396101796 2.277000000000000
-0.551273820094256 0.867720438712365 2.280000000000000
-0.551273820094256 0.873968965649545 2.280000000000000
-0.551273820094256 0.880217492586726 2.280000000000000
-0.551515606857455 0.886854820409662 2.281000000000000
-0.552240967147053 0.894280712332071 2.284000000000000
-0.552724540673451 0.901328765696683 2.286000000000000
-0.552966327436651 0.907990758757530 2.287000000000000
-0.553208114199850 0.914658232982356 2.288000000000000
-0.554175261252647 0.922538699758281 2.292000000000000
-0.555142408305444 0.930441091190125 2.296000000000000
-0.556109555358241 0.938365407277890 2.300000000000000
-0.556834915647838 0.945900922479898 2.303000000000000
-0.557560275937436 0.953452881173846 2.306000000000000
-0.558527422990233 0.961437490065390 2.310000000000000
-0.559010996516631 0.968606129037562 2.312000000000000
-0.559252783279831 0.975364042468058 2.313000000000000
-0.559252783279831 0.981703008610909 2.313000000000000
-0.559736356806229 0.988896312820991 2.315000000000000
-0.560461717095827 0.996530488974639 2.318000000000000
-0.560219930332628 1.002450507829843 2.317000000000000
-0.560703503859026 1.009671217859825 2.319000000000000
-0.561428864148624 1.017341021579343 2.322000000000000
-0.561912437675022 1.024586396847234 2.324000000000000
-0.561670650911823 1.030511896866418 2.323000000000000
-0.561428864148624 1.036431915721622 2.322000000000000
-0.561428864148624 1.042795547102382 2.322000000000000
-0.561428864148624 1.049159178483142 2.322000000000000
-0.561187077385425 1.055068235010387 2.321000000000000
-0.561428864148624 1.061886441244663 2.322000000000000
-0.561428864148624 1.068250072625423 2.322000000000000
-0.561187077385425 1.074150907406697 2.321000000000000
-0.561428864148624 1.080977335386943 2.322000000000000
-0.561187077385425 1.086872689004237 2.321000000000000
-0.561187077385425 1.093233579803007 2.321000000000000
-0.560703503859026 1.098646952746885 2.319000000000000
-0.559978143569428 1.103572863853368 2.316000000000000
-0.560219930332628 1.110399291833614 2.317000000000000
-0.560219930332628 1.116749220304424 2.317000000000000
-0.560461717095827 1.123583870030640 2.318000000000000
-0.560461717095827 1.129936539083440 2.318000000000000
-0.561428864148624 1.138250017813783 2.322000000000000
-0.561912437675022 1.145599535197294 2.324000000000000
-0.562154224438221 1.152464331325400 2.325000000000000
-0.561670650911823 1.157839336121419 2.323000000000000
-0.561428864148624 1.163704543336823 2.322000000000000
-0.560461717095827 1.168052553400240 2.318000000000000
-0.560219930332628 1.173898576541714 2.317000000000000
-0.559978143569428 1.179739118519209 2.316000000000000
-0.560461717095827 1.187110560558640 2.318000000000000
-0.560703503859026 1.193978097268736 2.319000000000000
-0.560219930332628 1.199298290424955 2.317000000000000
-0.559736356806229 1.204607521253213 2.315000000000000
-0.559252783279831 1.209905789753512 2.313000000000000
-0.559010996516631 1.215718925911106 2.312000000000000
-0.558527422990233 1.220998010337475 2.310000000000000
-0.558527422990233 1.227328754734355 2.310000000000000
-0.558527422990233 1.233659499131236 2.310000000000000
-0.558043849463834 1.238916658901684 2.308000000000000
-0.557318489174237 1.243623323448968 2.305000000000000
-0.557076702411038 1.249398091458702 2.304000000000000
-0.558043849463834 1.257892448600385 2.308000000000000
-0.558043849463834 1.264217711833285 2.308000000000000
-0.559010996516631 1.272744955958847 2.312000000000000
-0.559010996516631 1.279081181519707 2.312000000000000
-0.559494570043030 1.286529359854859 2.314000000000000
-0.559010996516631 1.291753632641428 2.312000000000000
-0.559252783279831 1.298651315753413 2.313000000000000
-0.559736356806229 1.306118678162494 2.315000000000000
-0.559494570043030 1.311896186754219 2.314000000000000
-0.559494570043030 1.318237893479059 2.314000000000000
-0.560945290622225 1.328014119478412 2.320000000000000
-0.562154224438221 1.337248072000570 2.325000000000000
-0.562396011201421 1.344197826170366 2.326000000000000
-0.562396011201421 1.350572419879086 2.326000000000000
-0.563604945017417 1.359863924623033 2.331000000000000
-0.565539239123011 1.370941203553987 2.339000000000000
-0.566506386175808 1.379706878312678 2.343000000000000
-0.566264599412608 1.385536457962213 2.342000000000000
-0.566748172939007 1.393143590052783 2.344000000000000
-0.568198893518202 1.403150024939296 2.350000000000000
-0.569891400860597 1.413789172508674 2.357000000000000
-0.569407827334198 1.419043591697133 2.355000000000000
-0.650945973635681 -0.881572425360249 2.723000000000000
-0.656683286660747 -0.881814056993143 2.747000000000000
-0.659790997882658 -0.878423178746239 2.760000000000000
-0.659073833754525 -0.869912586396847 2.757000000000000
-0.658117614917014 -0.861105649435714 2.753000000000000
-0.657400450788881 -0.852630684652193 2.750000000000000
-0.658117614917014 -0.846016004998822 2.753000000000000
-0.658117614917014 -0.838471182780375 2.753000000000000
-0.658595724335769 -0.831530012113372 2.755000000000000
-0.658595724335769 -0.823979708730946 2.755000000000000
-0.659073833754525 -0.817022094572003 2.757000000000000
-0.659073833754525 -0.809466310025597 2.757000000000000
-0.658834779045147 -0.801619662031429 2.756000000000000
-0.658356669626392 -0.793490372335469 2.754000000000000
-0.657878560207636 -0.785372044967469 2.752000000000000
-0.658595724335769 -0.778677888436388 2.755000000000000
-0.659312888463903 -0.771967288413367 2.758000000000000
-0.659312888463903 -0.764408763284971 2.758000000000000
-0.659551943173281 -0.757124658112397 2.759000000000000
-0.659073833754525 -0.749020033654347 2.757000000000000
-0.660030052592036 -0.742540004275308 2.761000000000000
-0.660269107301414 -0.735239455610794 2.762000000000000
-0.661225326138925 -0.728723798665885 2.766000000000000
-0.660986271429547 -0.720882631835697 2.765000000000000
-0.661942490267058 -0.714336828488898 2.769000000000000
-0.662420599685814 -0.707258628722396 2.771000000000000
-0.661464380848303 -0.698654494828522 2.767000000000000
-0.659073833754525 -0.688573757283097 2.757000000000000
-0.656922341370125 -0.678794845513393 2.748000000000000
-0.656922341370125 -0.671263726204897 2.748000000000000
-0.655966122532614 -0.662766475008633 2.744000000000000
-0.657639505498258 -0.656917864757760 2.751000000000000
-0.657878560207636 -0.649614575511256 2.752000000000000
-0.657878560207636 -0.642072493874799 2.752000000000000
-0.656683286660747 -0.633377559018433 2.747000000000000
-0.657161396079503 -0.626304840415911 2.749000000000000
-0.657639505498258 -0.619221159485428 2.751000000000000
-0.657878560207636 -0.611904167328974 2.752000000000000
-0.656683286660747 -0.603264044112408 2.747000000000000
-0.656444231951369 -0.595518797651869 2.746000000000000
-0.656205177241992 -0.587779032355311 2.745000000000000
-0.655966122532614 -0.580044748222733 2.744000000000000
-0.654531794276347 -0.571272715313824 2.738000000000000
-0.651902192473192 -0.561504042358435 2.727000000000000
-0.647599207704392 -0.550373508438252 2.709000000000000
-0.652858411310703 -0.547358605153390 2.731000000000000
-0.646882043576259 -0.534931984236172 2.706000000000000
-0.641861894679325 -0.523422164730902 2.685000000000000
-0.645208660610614 -0.518754537033484 2.699000000000000
-0.641144730551192 -0.508136853702252 2.682000000000000
-0.634451198688614 -0.495558415505117 2.654000000000000
-0.638037019329281 -0.491044622155961 2.669000000000000
-0.636841745782392 -0.482823807983863 2.664000000000000
-0.649989754798170 -0.485340374801993 2.719000000000000
-0.633494979851103 -0.465761361082639 2.650000000000000
-0.636841745782392 -0.460921076719852 2.664000000000000
-0.638037019329281 -0.454471555499526 2.669000000000000
-0.639710402294925 -0.448329702975724 2.676000000000000
-0.640666621132436 -0.441655092275396 2.680000000000000
-0.642100949388703 -0.435282669107612 2.686000000000000
-0.642818113516836 -0.428399412419221 2.689000000000000
-0.643057168226214 -0.421186562378387 2.690000000000000
-0.639471347585548 -0.411506881601377 2.675000000000000
-0.635407417526125 -0.401607230751522 2.658000000000000
-0.633494979851103 -0.393135938347868 2.650000000000000
-0.633494979851103 -0.385873396074390 2.650000000000000
-0.633734034560481 -0.378753725821215 2.651000000000000
-0.632299706304214 -0.370647654335875 2.645000000000000
-0.630148213919814 -0.362162297265447 2.636000000000000
-0.627996721535414 -0.353726270670840 2.627000000000000
-0.625606174441637 -0.345207664859710 2.617000000000000
-0.623932791475992 -0.337131378019436 2.610000000000000
-0.621303189672837 -0.328587745213574 2.599000000000000
-0.620346970835326 -0.320970220836097 2.595000000000000
-0.618912642579059 -0.313132726385775 2.589000000000000
-0.617239259613414 -0.305209912136941 2.582000000000000
-0.615087767229014 -0.297094533635163 2.573000000000000
-0.614848712519637 -0.289930290556503 2.572000000000000
-0.613892493682126 -0.282441573532555 2.568000000000000
-0.613892493682126 -0.275403758982257 2.568000000000000
-0.613175329553992 -0.268052432814633 2.565000000000000
-0.613414384263370 -0.261124603300757 2.566000000000000
-0.613175329553992 -0.253993247205977 2.565000000000000
-0.612458165425859 -0.246674808022232 2.562000000000000
-0.611023837169592 -0.239092187696979 2.556000000000000
-0.609589508913326 -0.231542454355607 2.550000000000000
-0.608394235366437 -0.224113668378617 2.545000000000000
-0.606720852400792 -0.216541648624502 2.538000000000000
-0.606720852400792 -0.209586051533904 2.538000000000000
-0.606003688272659 -0.202390938539708 2.535000000000000
-0.604569360016392 -0.194980974879825 2.529000000000000
-0.601939758213237 -0.187232110851060 2.518000000000000
-0.599788265828837 -0.179686773403200 2.509000000000000
-0.598353937572570 -0.172397395350877 2.503000000000000
-0.596919609316304 -0.165140904282433 2.497000000000000
-0.596441499897548 -0.158170880768240 2.495000000000000
-0.595485281060037 -0.151090510460801 2.491000000000000
-0.593333788675637 -0.143742494916220 2.482000000000000
-0.591182296291237 -0.136443809847459 2.473000000000000
-0.591182296291237 -0.129666350586211 2.473000000000000
-0.589269858616215 -0.122491353463822 2.465000000000000
-0.588313639778704 -0.115548012255883 2.461000000000000
-0.585684037975548 -0.108317118223226 2.450000000000000
-0.584966873847415 -0.101478280887729 2.447000000000000
-0.585205928556793 -0.094810806662903 2.448000000000000
-0.585684037975548 -0.088173840596789 2.450000000000000
-0.585205928556793 -0.081392917239905 2.448000000000000
-0.583771600300526 -0.074500923576131 2.442000000000000
-0.582576326753637 -0.067669584472959 2.437000000000000
-0.582098217334882 -0.060940732173884 2.435000000000000
-0.581141998497370 -0.054178269377285 2.431000000000000
-0.580663889078615 -0.047476822898111 2.429000000000000
-0.579707670241104 -0.040752728249371 2.425000000000000
-0.578990506112971 -0.034064622923324 2.422000000000000
-0.578273341984837 -0.027392961089217 2.419000000000000
-0.578273341984837 -0.020763493255428 2.419000000000000
-0.578273341984837 -0.014134025421639 2.419000000000000
-0.577795232566082 -0.007498352910224 2.417000000000000
-0.577556177856704 -0.000874004483592 2.416000000000000
-0.577078068437948 0.005742483953892 2.414000000000000
-0.577556177856704 0.012368487692046 2.416000000000000
-0.577795232566082 0.018997593769013 2.417000000000000
-0.577556177856704 0.025610979867685 2.416000000000000
-0.578273341984837 0.032272249414886 2.419000000000000
-0.577795232566082 0.038869553778440 2.417000000000000
-0.577795232566082 0.045493540448250 2.417000000000000
-0.576839013728570 0.052031275521670 2.413000000000000
-0.577078068437948 0.058668603344606 2.414000000000000
-0.577078068437948 0.065284368268445 2.414000000000000
-0.576839013728570 0.071870348547217 2.413000000000000
-0.577078068437948 0.078515898116124 2.414000000000000
-0.578751451403593 0.085378523703294 2.421000000000000
-0.580185779659859 0.092241511047286 2.427000000000000
-0.579707670241104 0.098811409590941 2.425000000000000
-0.578990506112971 0.105326858251618 2.422000000000000
-0.578273341984837 0.111825863420356 2.419000000000000
-0.578512396694215 0.118504299973142 2.420000000000000
-0.578751451403593 0.125188217689909 2.421000000000000
-0.578990506112971 0.131877616570655 2.422000000000000
-0.578273341984837 0.138343734755513 2.419000000000000
-0.577556177856704 0.144793409448430 2.416000000000000
-0.577317123147326 0.151351983907303 2.415000000000000
-0.577556177856704 0.158035901624069 2.416000000000000
-0.577317123147326 0.164588994918961 2.415000000000000
-0.577078068437948 0.171136607049873 2.414000000000000
-0.576599959019193 0.177605104059898 2.412000000000000
-0.575643740181682 0.183909889664169 2.408000000000000
-0.573731302506659 0.189876290128972 2.400000000000000
-0.573253193087904 0.196289975499197 2.398000000000000
-0.573014138378526 0.202777294826329 2.397000000000000
-0.573492247797282 0.209521143590053 2.399000000000000
-0.572536028959771 0.215735489988654 2.395000000000000
-0.572296974250393 0.222206365823846 2.394000000000000
-0.571101700703504 0.228289526043751 2.389000000000000
-0.571579810122259 0.235033374807474 2.391000000000000
-0.570145481865993 0.240979867684701 2.385000000000000
-0.569667372447237 0.247308595013237 2.383000000000000
-0.568472098900348 0.253306797191452 2.378000000000000
-0.568233044190971 0.259714639640874 2.377000000000000
-0.567037770644082 0.265668992507249 2.372000000000000
-0.565364387678437 0.271366454180210 2.365000000000000
-0.564169114131548 0.277260514242805 2.360000000000000
-0.563691004712793 0.283487840037710 2.358000000000000
-0.563930059422171 0.290073096802837 2.359000000000000
-0.562734785875282 0.295909604643642 2.354000000000000
-0.561778567037771 0.301847152261254 2.350000000000000
-0.560105184072126 0.307369216686856 2.343000000000000
-0.559627074653371 0.313522546768032 2.341000000000000
-0.558431801106482 0.319254912493217 2.336000000000000
-0.558192746397104 0.325517504097170 2.335000000000000
-0.557953691687726 0.331774614537143 2.334000000000000
-0.558431801106482 0.338460911079077 2.336000000000000
-0.556997472850215 0.343977132583875 2.330000000000000
-0.556041254012704 0.349761207610048 2.326000000000000
-0.555563144593949 0.355829579649534 2.324000000000000
-0.555802199303326 0.362354543610881 2.325000000000000
-0.555085035175193 0.368250620741821 2.322000000000000
-0.554128816337682 0.373968921800233 2.318000000000000
-0.553411652209549 0.379829371365303 2.315000000000000
-0.552694488081415 0.385673377438433 2.312000000000000
-0.552216378662660 0.391670494346179 2.310000000000000
-0.551977323953282 0.397828943834513 2.309000000000000
-0.551977323953282 0.404156947649403 2.309000000000000
-0.551738269243904 0.410307175391766 2.308000000000000
-0.551499214534526 0.416451921970150 2.307000000000000
-0.551738269243904 0.422957701857566 2.308000000000000
-0.551738269243904 0.429282965090466 2.308000000000000
-0.551738269243904 0.435608228323367 2.308000000000000
-0.551021105115771 0.441359054608837 2.305000000000000
-0.550542995697015 0.447287656966833 2.303000000000000
-0.549825831568882 0.453008336850414 2.300000000000000
-0.549108667440749 0.458712573242054 2.297000000000000
-0.548869612731371 0.464805248762627 2.296000000000000
-0.549586776859504 0.471713170688927 2.299000000000000
-0.549108667440749 0.477597923735084 2.297000000000000
-0.545761901509460 0.480943757776401 2.283000000000000
-0.545761901509460 0.487200506459552 2.283000000000000
-0.547435284475104 0.494970264685409 2.290000000000000
-0.547435284475104 0.501246197442489 2.290000000000000
-0.545044737381327 0.505305876355903 2.280000000000000
-0.542654190287549 0.509310743629517 2.270000000000000
-0.541937026159415 0.514850545101758 2.267000000000000
-0.541219862031282 0.520373903082058 2.264000000000000
-0.542893244996926 0.528206694693685 2.271000000000000
-0.544566627962571 0.536077854453172 2.278000000000000
-0.544327573253193 0.542082831350066 2.277000000000000
