# This PCD file was generated using the MATLAB® pcwrite function
# from Computer Vision Toolbox®.
# .PCD v.7 - Point Cloud Data file format
VERSION .7
FIELDS x y z
SIZE 8 8 8
TYPE F F F
COUNT 1 1 1
WIDTH 866
HEIGHT 1
VIEWPOINT 0 0 0 1 0 0 0
POINTS 866
DATA ascii
-0.373393893859709 0.660156311834381 2.297000000000000
-0.372743665050202 0.665290868928926 2.293000000000000
-0.372581107847825 0.671282142915870 2.292000000000000
-0.372906222252578 0.678154799033123 2.294000000000000
-0.373231336657332 0.685038417478336 2.296000000000000
-0.373556451062086 0.691932998251509 2.298000000000000
-0.373393893859709 0.697927012820443 2.297000000000000
-0.373556451062086 0.704528713077509 2.298000000000000
-0.373393893859709 0.710517246482463 2.297000000000000
-0.373231336657332 0.716500298723437 2.296000000000000
-0.373068779454955 0.722477869800431 2.295000000000000
-0.372743665050202 0.728132413959428 2.293000000000000
-0.372906222252578 0.734736854798485 2.294000000000000
-0.373068779454955 0.741346776801521 2.295000000000000
-0.373231336657332 0.747962179968538 2.296000000000000
-0.373719008264463 0.755240080463487 2.299000000000000
-0.373719008264463 0.761540678458477 2.299000000000000
-0.373556451062086 0.767507287207511 2.298000000000000
-0.372906222252578 0.772458225308727 2.294000000000000
-0.372743665050202 0.778405649983831 2.293000000000000
-0.373231336657332 0.785716437462660 2.296000000000000
-0.373393893859709 0.792353765285596 2.297000000000000
-0.373393893859709 0.798648882116606 2.297000000000000
-0.372743665050202 0.803542267996032 2.293000000000000
-0.372743665050202 0.809826422499082 2.293000000000000
-0.372743665050202 0.816110577002132 2.293000000000000
-0.373068779454955 0.823112040472915 2.295000000000000
-0.373068779454955 0.829401676139945 2.295000000000000
-0.373393893859709 0.836419583102668 2.297000000000000
-0.373556451062086 0.843081576163514 2.298000000000000
-0.373393893859709 0.849009816764688 2.297000000000000
-0.373393893859709 0.855304933595698 2.297000000000000
-0.373556451062086 0.861975148402515 2.298000000000000
-0.373881565466840 0.869028682931107 2.300000000000000
-0.373881565466840 0.875332021508088 2.300000000000000
-0.374044122669217 0.882018679806844 2.301000000000000
-0.374369237073970 0.889096879573346 2.303000000000000
-0.375019465883478 0.896963643439321 2.307000000000000
-0.375832251895362 0.905243873428961 2.312000000000000
-0.375669694692986 0.911185816940085 2.311000000000000
-0.375507137490609 0.917122279287229 2.310000000000000
-0.375832251895362 0.924252550111542 2.312000000000000
-0.375994809097739 0.930991279468108 2.313000000000000
-0.375832251895362 0.936925001233262 2.312000000000000
-0.376157366300116 0.944077196713494 2.314000000000000
-0.376645037907247 0.951651080063362 2.317000000000000
-0.376970152312001 0.958827940781504 2.319000000000000
-0.376970152312001 0.965183350416294 2.319000000000000
-0.376807595109624 0.971119812763438 2.318000000000000
-0.376970152312001 0.977894169685874 2.319000000000000
-0.377132709514377 0.984674007772290 2.320000000000000
-0.377620381121508 0.992313665089918 2.323000000000000
-0.377457823919131 0.998250127437063 2.322000000000000
-0.377457823919131 1.004613758817823 2.322000000000000
-0.377620381121508 1.011412780978169 2.323000000000000
-0.378270609931016 1.019531678387222 2.327000000000000
-0.377945495526262 1.025027268790800 2.325000000000000
-0.378270609931016 1.032286346968642 2.327000000000000
-0.378108052728639 1.038217328151806 2.326000000000000
-0.378433167133393 1.045490109239598 2.328000000000000
-0.378108052728639 1.050966515569246 2.326000000000000
-0.377782938323885 1.056431959570934 2.324000000000000
-0.378108052728639 1.063715702986686 2.326000000000000
-0.378270609931016 1.070550352712902 2.327000000000000
-0.378433167133393 1.077390483603098 2.328000000000000
-0.378433167133393 1.083770558475798 2.328000000000000
-0.378270609931016 1.089682355585032 2.327000000000000
-0.377945495526262 1.095117653184830 2.325000000000000
-0.378108052728639 1.101963265239006 2.326000000000000
-0.378270609931016 1.108814358457162 2.327000000000000
-0.378433167133393 1.115670932839298 2.328000000000000
-0.378270609931016 1.121569027038582 2.327000000000000
-0.378270609931016 1.127946361329292 2.327000000000000
-0.377945495526262 1.133348771945210 2.325000000000000
-0.377457823919131 1.138250017813783 2.322000000000000
-0.377782938323885 1.145599535197294 2.324000000000000
-0.377457823919131 1.150977280575303 2.322000000000000
-0.377457823919131 1.157340911956063 2.322000000000000
-0.376970152312001 1.162201049094786 2.319000000000000
-0.376807595109624 1.168052553400240 2.318000000000000
-0.376645037907247 1.173898576541714 2.317000000000000
-0.375994809097739 1.178210959039262 2.313000000000000
-0.375669694692986 1.183525671031500 2.311000000000000
-0.375507137490609 1.189344288353074 2.310000000000000
-0.375182023085855 1.194639816271383 2.308000000000000
-0.374856908681101 1.199924381861732 2.306000000000000
-0.374531794276347 1.205197985124121 2.304000000000000
-0.374694351478724 1.212038116014317 2.305000000000000
-0.374531794276347 1.217826586934001 2.304000000000000
-0.373556451062086 1.220953020943528 2.298000000000000
-0.373393893859709 1.226716826625302 2.297000000000000
-0.373556451062086 1.233548735769528 2.298000000000000
-0.374856908681101 1.244162856344173 2.306000000000000
-0.375994809097739 1.254278552753463 2.313000000000000
-0.377295266716754 1.264977631369798 2.321000000000000
-0.378920838740523 1.276816068580324 2.331000000000000
-0.380708967966669 1.289259812653815 2.342000000000000
-0.382009425585684 1.300104142115619 2.350000000000000
-0.381684311180930 1.305432557017808 2.348000000000000
-0.379733624752408 1.305162839900681 2.336000000000000
-0.379896181954785 1.312126296980427 2.337000000000000
-0.382334539990438 1.326994009087770 2.352000000000000
-0.383960112014207 1.339109245079285 2.362000000000000
-0.382984768799945 1.342164423957071 2.356000000000000
-0.384285226418960 1.353200594158175 2.364000000000000
-0.385260569633222 1.363130292748968 2.370000000000000
-0.391275186121167 1.391007810658671 2.407000000000000
-0.384447783621337 1.373217443256250 2.365000000000000
-0.415705211392664 -0.157762512127075 2.601000000000000
-0.412668533570111 -0.149533892777470 2.582000000000000
-0.411070282084557 -0.141905976113087 2.572000000000000
-0.407713953964893 -0.133756110127547 2.551000000000000
-0.404517450993785 -0.125771040818228 2.531000000000000
-0.402120073765453 -0.118130353041772 2.516000000000000
-0.401320948022676 -0.111013993411641 2.511000000000000
-0.400042346834233 -0.103800628141392 2.503000000000000
-0.398923570794345 -0.096669842087666 2.496000000000000
-0.397964619903012 -0.089613413504492 2.490000000000000
-0.397485144457346 -0.082689618127306 2.487000000000000
-0.396686018714569 -0.075721249924634 2.482000000000000
-0.395567242674681 -0.068724752388417 2.475000000000000
-0.394768116931904 -0.061816676989526 2.470000000000000
-0.394288641486237 -0.054980580236019 2.467000000000000
-0.393809166040571 -0.048160926974452 2.464000000000000
-0.393809166040571 -0.041408132951114 2.464000000000000
-0.393809166040571 -0.034655338927775 2.464000000000000
-0.393489515743460 -0.027879896734871 2.462000000000000
-0.393329690594905 -0.021124000372719 2.461000000000000
-0.393329690594905 -0.014379428095350 2.461000000000000
-0.393809166040571 -0.007644162834420 2.464000000000000
-0.394608291783348 -0.000893177595194 2.469000000000000
-0.395567242674681 0.005887592289098 2.475000000000000
-0.397165494160235 0.012721726785900 2.485000000000000
-0.397165494160235 0.019532073031029 2.485000000000000
-0.397644969605901 0.026374220989569 2.488000000000000
-0.397644969605901 0.033192788980668 2.488000000000000
-0.398124445051568 0.040059602177118 2.491000000000000
-0.398444095348678 0.046924036548401 2.493000000000000
-0.398763745645789 0.053799433247644 2.495000000000000
-0.399243221091456 0.060710095755935 2.498000000000000
-0.398444095348678 0.067420849251547 2.493000000000000
-0.397644969605901 0.074104196927259 2.488000000000000
-0.396686018714569 0.080727613556015 2.482000000000000
-0.396046718120347 0.087388674818985 2.478000000000000
-0.395567242674681 0.094065817817072 2.475000000000000
-0.394768116931904 0.100645023377164 2.470000000000000
-0.393169865446349 0.106979385342271 2.460000000000000
-0.391411788812240 0.113212707530571 2.449000000000000
-0.390452837920907 0.119630580510077 2.443000000000000
-0.389653712178130 0.126067275806690 2.438000000000000
-0.389174236732464 0.132585465049358 2.435000000000000
-0.388854586435353 0.139144401265053 2.433000000000000
-0.388694761286797 0.145752306199745 2.432000000000000
-0.387895635544020 0.152104043454668 2.427000000000000
-0.386617034355577 0.158232138256880 2.419000000000000
-0.385817908612800 0.164520842126034 2.414000000000000
-0.385018782870023 0.170782140175288 2.409000000000000
-0.384059831978690 0.176942398447734 2.403000000000000
-0.383260706235913 0.183146144275198 2.398000000000000
-0.382781230790247 0.189480714524536 2.395000000000000
-0.382461580493136 0.195880696984812 2.393000000000000
-0.381502629601803 0.201931331977659 2.387000000000000
-0.381182979304692 0.208298427454054 2.385000000000000
-0.381182979304692 0.214834715500184 2.385000000000000
-0.380863329007581 0.221185367484639 2.383000000000000
-0.380543678710471 0.227525057141134 2.381000000000000
-0.379584727819138 0.233460587690402 2.375000000000000
-0.378945427224916 0.239565310809403 2.371000000000000
-0.378146301482139 0.245544328913688 2.366000000000000
-0.377666826036473 0.251708983079647 2.363000000000000
-0.377666826036473 0.258184978321996 2.363000000000000
-0.377347175739362 0.264436969354812 2.361000000000000
-0.376707875145140 0.270448512686154 2.357000000000000
-0.375908749402363 0.276320648092829 2.352000000000000
-0.375589099105252 0.282526049231815 2.350000000000000
-0.376228399699474 0.289458274639202 2.354000000000000
-0.376068574550919 0.295783899628925 2.353000000000000
-0.375748924253808 0.301975597857961 2.351000000000000
-0.376548049996585 0.309074637009915 2.356000000000000
-0.371433645242811 0.311245791836354 2.324000000000000
-0.368876442865924 0.315428226898264 2.308000000000000
-0.369515743460146 0.322311121829832 2.312000000000000
-0.374150672768254 0.332769654083741 2.341000000000000
-0.375908749402363 0.340779136497427 2.352000000000000
-0.373990847619698 0.345453429290244 2.340000000000000
-0.374789973362475 0.352618242409958 2.345000000000000
-0.374789973362475 0.359044907176488 2.345000000000000
-0.375429273956697 0.366094977609445 2.349000000000000
-0.373831022471143 0.370946684717967 2.339000000000000
-0.371273820094256 0.374775584703168 2.323000000000000
-0.372712246431255 0.382618615129109 2.332000000000000
-0.373511372174032 0.389843721052603 2.337000000000000
-0.373031896728366 0.395739798183542 2.334000000000000
-0.371753295539922 0.400757957279808 2.326000000000000
-0.370954169797145 0.406257373535844 2.321000000000000
-0.368876442865924 0.410307175391766 2.308000000000000
-0.368237142271703 0.415910372006599 2.304000000000000
-0.369515743460146 0.423690730803593 2.312000000000000
-0.371753295539922 0.432630925823408 2.326000000000000
-0.371753295539922 0.439005519532128 2.326000000000000
-0.371113994945701 0.444614197310941 2.322000000000000
-0.369355918311591 0.448841413482567 2.311000000000000
-0.367118366231815 0.452417456411043 2.297000000000000
-0.368077317123147 0.459910777612734 2.303000000000000
-0.368077317123147 0.466222337935684 2.303000000000000
-0.366319240489038 0.470276897441941 2.292000000000000
-0.366159415340482 0.476350388888584 2.291000000000000
-0.366958541083259 0.483682377509688 2.296000000000000
-0.365360289597705 0.487840717374742 2.286000000000000
-0.365679939894816 0.494537976244635 2.288000000000000
-0.368396967420258 0.504529469478138 2.305000000000000
-0.369835393757257 0.512841139424368 2.314000000000000
-0.369355918311591 0.518509748250138 2.311000000000000
-0.368716617717369 0.523934807035622 2.307000000000000
-0.369355918311591 0.531176718207878 2.311000000000000
-0.367597841677481 0.534951738351156 2.300000000000000
-0.366958541083259 0.540313763750870 2.296000000000000
-0.366638890786149 0.546130002247277 2.294000000000000
-0.366479065637593 0.552176087874021 2.293000000000000
-0.366479065637593 0.558460242377071 2.293000000000000
-0.367278191380370 0.565975849991504 2.298000000000000
-0.367438016528926 0.572522738608771 2.299000000000000
-0.367118366231815 0.578319793031248 2.297000000000000
-0.366638890786149 0.583851372757519 2.294000000000000
-0.366798715934704 0.590395520792795 2.295000000000000
-0.366798715934704 0.596685156459826 2.295000000000000
-0.367118366231815 0.603500260355289 2.297000000000000
-0.366798715934704 0.609264427793886 2.295000000000000
-0.366798715934704 0.615554063460916 2.295000000000000
-0.366798715934704 0.621843699127947 2.295000000000000
-0.367438016528926 0.629228120563683 2.299000000000000
-0.367917491974592 0.636358029631172 2.302000000000000
-0.367757666826037 0.642387671765976 2.301000000000000
-0.367597841677481 0.648411832736800 2.300000000000000
-0.367597841677481 0.654715171313780 2.300000000000000
-0.367757666826037 0.661305909242887 2.301000000000000
-0.367597841677481 0.667321848467741 2.300000000000000
-0.367278191380370 0.673039426012508 2.298000000000000
-0.367438016528926 0.679632904523605 2.299000000000000
-0.367278191380370 0.685635140838508 2.298000000000000
-0.367438016528926 0.692234100513585 2.299000000000000
-0.367278191380370 0.698230855664509 2.298000000000000
-0.367438016528926 0.704835296503565 2.299000000000000
-0.367278191380370 0.710826570490509 2.298000000000000
-0.367118366231815 0.716812363313473 2.297000000000000
-0.367438016528926 0.723737090488536 2.299000000000000
-0.367438016528926 0.730037688483526 2.299000000000000
-0.367597841677481 0.736658572814523 2.300000000000000
-0.367597841677481 0.742961911391503 2.300000000000000
-0.367597841677481 0.749265249968483 2.300000000000000
-0.367917491974592 0.756225604709416 2.302000000000000
-0.368077317123147 0.762865673114342 2.303000000000000
-0.367917491974592 0.768843244191336 2.302000000000000
-0.367438016528926 0.774141874448458 2.299000000000000
-0.367438016528926 0.780442472443448 2.299000000000000
-0.367757666826037 0.787427492422291 2.301000000000000
-0.367597841677481 0.793388620007345 2.300000000000000
-0.367597841677481 0.799691958584325 2.300000000000000
-0.367278191380370 0.805294431685513 2.298000000000000
-0.367757666826037 0.812651809058171 2.301000000000000
-0.367757666826037 0.818957888217142 2.301000000000000
-0.367917491974592 0.825622621859978 2.302000000000000
-0.367597841677481 0.831208651469226 2.300000000000000
-0.367757666826037 0.837876125694052 2.301000000000000
-0.367597841677481 0.843815328623186 2.300000000000000
-0.367757666826037 0.850488284011993 2.301000000000000
-0.367917491974592 0.857166720564779 2.302000000000000
-0.367917491974592 0.863475540305739 2.302000000000000
-0.367917491974592 0.869784360046699 2.302000000000000
-0.368237142271703 0.876854338067232 2.304000000000000
-0.368876442865924 0.884701917859277 2.308000000000000
-0.369515743460146 0.892571422307241 2.312000000000000
-0.369835393757257 0.899685249639613 2.314000000000000
-0.369675568608702 0.905635414896707 2.313000000000000
-0.369675568608702 0.911974381039558 2.313000000000000
-0.369995218905812 0.919107392445860 2.315000000000000
-0.370634519500034 0.927050892607554 2.319000000000000
-0.370794344648590 0.933808806038050 2.320000000000000
-0.370954169797145 0.940572200632526 2.321000000000000
-0.371273820094256 0.947749061350668 2.323000000000000
-0.371753295539922 0.955347609938446 2.326000000000000
-0.371593470391367 0.961308737523500 2.325000000000000
-0.371433645242811 0.967264383944574 2.324000000000000
-0.371273820094256 0.973214549201668 2.323000000000000
-0.371593470391367 0.980424296903690 2.325000000000000
-0.372072945837033 0.988069435385298 2.328000000000000
-0.372552421282699 0.995731017358846 2.331000000000000
-0.372712246431255 1.002549223593122 2.332000000000000
-0.372552421282699 1.008507610596186 2.331000000000000
-0.372712246431255 1.015331297994442 2.332000000000000
-0.372552421282699 1.021284203833526 2.331000000000000
-0.372232770985588 1.026790756565064 2.329000000000000
-0.372072945837033 1.032729959494198 2.328000000000000
-0.372392596134144 1.040002740581990 2.330000000000000
-0.372712246431255 1.047286483997742 2.332000000000000
-0.372712246431255 1.053677521198402 2.332000000000000
-0.372552421282699 1.059613983545546 2.331000000000000
-0.372712246431255 1.066459595599721 2.332000000000000
-0.372872071579810 1.073310688817877 2.333000000000000
-0.373191721876921 1.080630059799499 2.335000000000000
-0.373351547025476 1.087494855927605 2.336000000000000
-0.373031896728366 1.092960299929293 2.334000000000000
-0.373031896728366 1.099356818293933 2.334000000000000
-0.373031896728366 1.105753336658573 2.334000000000000
-0.373191721876921 1.112626354532648 2.335000000000000
-0.373191721876921 1.119025613479278 2.335000000000000
-0.373031896728366 1.124942891752492 2.334000000000000
-0.372712246431255 1.130369967606321 2.332000000000000
-0.372552421282699 1.136273542969585 2.331000000000000
-0.372072945837033 1.141191232330097 2.328000000000000
-0.372552421282699 1.149050136206925 2.331000000000000
-0.372232770985588 1.154447065658863 2.329000000000000
-0.372072945837033 1.160331456948197 2.328000000000000
-0.371593470391367 1.165208037578860 2.325000000000000
-0.371433645242811 1.171075985376254 2.324000000000000
-0.370954169797145 1.175925160187017 2.321000000000000
-0.370155044054368 1.179739118519209 2.316000000000000
-0.369995218905812 1.185574179332723 2.315000000000000
-0.369515743460146 1.190374023667666 2.312000000000000
-0.369196093163035 1.195675032749955 2.310000000000000
-0.368876442865924 1.200965079504283 2.308000000000000
-0.368876442865924 1.207290342737183 2.308000000000000
-0.368716617717369 1.213089775984828 2.307000000000000
-0.368237142271703 1.217826586934001 2.304000000000000
-0.367757666826037 1.222546954391235 2.301000000000000
-0.368077317123147 1.229921137012656 2.303000000000000
-0.368716617717369 1.238379866588468 2.307000000000000
-0.370155044054368 1.249558185296229 2.316000000000000
-0.371113994945701 1.259159014048223 2.322000000000000
-0.373031896728366 1.272062814139211 2.334000000000000
-0.374949798511031 1.285032388197958 2.346000000000000
-0.376867700293696 1.298067736224465 2.358000000000000
-0.377666826036473 1.307296207582642 2.363000000000000
-0.377826651185028 1.314328179212137 2.364000000000000
-0.375269448808142 1.311867443530308 2.348000000000000
-0.374630148213920 1.316056499838306 2.344000000000000
-0.375429273956697 1.325301414688423 2.349000000000000
-0.377507000887917 1.339109245079285 2.362000000000000
-0.377666826036473 1.346152179036740 2.363000000000000
-0.377507000887917 1.352055754400004 2.362000000000000
-0.377187350590807 1.357378688138213 2.360000000000000
-0.380863329007581 1.377138185625099 2.383000000000000
-0.392051089406461 1.424313906261133 2.453000000000000
-0.412526466771395 -0.159278876142138 2.626000000000000
-0.411898094392460 -0.151850451921970 2.622000000000000
-0.410012977255652 -0.144002565184743 2.610000000000000
-0.406871115360973 -0.135800989898215 2.590000000000000
-0.403415067276825 -0.127609653426002 2.568000000000000
-0.399959019192678 -0.119538902561348 2.546000000000000
-0.397288436582201 -0.111809792647567 2.529000000000000
-0.395717505634861 -0.104464155928153 2.519000000000000
-0.394146574687521 -0.097173330848539 2.509000000000000
-0.393361109213852 -0.090117264022188 2.504000000000000
-0.391790178266512 -0.082922359312224 2.494000000000000
-0.391004712792842 -0.075934807035622 2.489000000000000
-0.389905061129704 -0.068919125425475 2.482000000000000
-0.389590874940236 -0.062066946936852 2.480000000000000
-0.389119595656034 -0.055203444363445 2.477000000000000
-0.388805409466566 -0.048375931112731 2.475000000000000
-0.388962502561300 -0.041609795936265 2.476000000000000
-0.389119595656034 -0.034838179595819 2.477000000000000
-0.388962502561300 -0.028038433921828 2.476000000000000
-0.388648316371833 -0.021235585909024 2.474000000000000
-0.388177037087631 -0.014437857303377 2.471000000000000
-0.388491223277099 -0.007672083883734 2.473000000000000
-0.389590874940236 -0.000897156920244 2.480000000000000
-0.390847619698108 0.005918517016274 2.488000000000000
-0.391947271361246 0.012772920857473 2.495000000000000
-0.391947271361246 0.019610672922502 2.495000000000000
-0.392418550645448 0.026480226700942 2.498000000000000
-0.392732736834916 0.033352882818195 2.500000000000000
-0.393518202308585 0.040284746468760 2.505000000000000
-0.393675295403320 0.047168726670796 2.506000000000000
-0.393518202308585 0.054015062238617 2.505000000000000
-0.393832388498053 0.060928827085720 2.507000000000000
-0.393832388498053 0.067799466134628 2.507000000000000
-0.392889829929650 0.074491397313133 2.501000000000000
-0.391790178266512 0.081117916280701 2.494000000000000
-0.391947271361246 0.087988193572787 2.495000000000000
-0.392261457550714 0.094901958419890 2.497000000000000
-0.391790178266512 0.101622950729817 2.494000000000000
-0.390062154224438 0.107979599107666 2.483000000000000
-0.388177037087631 0.114229726544729 2.471000000000000
-0.387234478519227 0.120707892328015 2.465000000000000
-0.386449013045557 0.127204880428408 2.460000000000000
-0.385663547571887 0.133674462708901 2.455000000000000
-0.384720989003483 0.140059448704527 2.449000000000000
-0.383778430435080 0.146411547716273 2.443000000000000
-0.382992964961410 0.152793431373086 2.438000000000000
-0.382050406393006 0.159082496999063 2.432000000000000
-0.381579127108804 0.165543134019940 2.429000000000000
-0.381107847824602 0.171987327548878 2.426000000000000
-0.380165289256198 0.178194175715155 2.420000000000000
-0.379379823782529 0.184444511436449 2.415000000000000
-0.378594358308859 0.190667441337842 2.410000000000000
-0.378280172119391 0.197108532527968 2.408000000000000
-0.377494706645721 0.203284872535532 2.403000000000000
-0.377180520456253 0.209695817323767 2.401000000000000
-0.376709241172051 0.216005722335195 2.398000000000000
-0.376237961887849 0.222299183854683 2.395000000000000
-0.375452496414179 0.228385084656578 2.390000000000000
-0.374667030940510 0.234443579638572 2.385000000000000
-0.374195751656308 0.240676748354280 2.382000000000000
-0.373567379277372 0.246789693219252 2.378000000000000
-0.373096099993170 0.252987234369091 2.375000000000000
-0.372467727614234 0.259059070504212 2.371000000000000
-0.371996448330032 0.265220984088181 2.368000000000000
-0.371368075951096 0.271251711493453 2.364000000000000
-0.370896796666894 0.277377997511552 2.361000000000000
-0.370425517382692 0.283487840037710 2.358000000000000
-0.370268424287959 0.289827167937383 2.357000000000000
-0.370268424287959 0.296286719687793 2.357000000000000
-0.370582610477426 0.303003162631616 2.359000000000000
-0.372939006898436 0.311435988226460 2.374000000000000
-0.369797145003757 0.315263594656961 2.354000000000000
-0.365084352161738 0.317614904381094 2.324000000000000
-0.368383307151151 0.326911583343839 2.345000000000000
-0.371053889761628 0.335754772723536 2.362000000000000
-0.370896796666894 0.342083138295248 2.361000000000000
-0.370268424287959 0.347963133691071 2.357000000000000
-0.369325865719555 0.353520463925719 2.351000000000000
-0.367597841677481 0.358279353003404 2.340000000000000
-0.366655283109077 0.363757206360343 2.334000000000000
-0.366341096919609 0.369836540727789 2.332000000000000
-0.367597841677481 0.377518238573143 2.340000000000000
-0.368069120961683 0.384423419917454 2.343000000000000
-0.367283655488013 0.390010534797169 2.338000000000000
-0.367440748582747 0.396587569816326 2.339000000000000
-0.368069120961683 0.403686970725103 2.343000000000000
-0.367754934772215 0.409758083346579 2.341000000000000
-0.365712724540673 0.413862696842301 2.328000000000000
-0.363827607403866 0.418076571860800 2.316000000000000
-0.363984700498600 0.424607016986127 2.317000000000000
-0.363513421214398 0.430398952001447 2.314000000000000
-0.366969469298545 0.440892903536995 2.336000000000000
-0.366026910730141 0.446146029170755 2.330000000000000
-0.362727955740728 0.448452974353634 2.309000000000000
-0.360528652414453 0.452023536118130 2.295000000000000
-0.361942490267058 0.460110478341181 2.304000000000000
-0.362256676456526 0.466829661866994 2.306000000000000
-0.361628304077590 0.472328716366207 2.302000000000000
-0.361471210982856 0.478429613632751 2.301000000000000
-0.360685745509187 0.483682377509688 2.296000000000000
-0.361157024793388 0.490614964673898 2.299000000000000
-0.360685745509187 0.496267130007728 2.296000000000000
-0.364455979782802 0.507812741513788 2.320000000000000
-0.366184003824875 0.516608770958601 2.331000000000000
-0.364298886688068 0.520304675980991 2.319000000000000
-0.362570862645994 0.524161913583969 2.308000000000000
-0.362413769551260 0.530257329686532 2.307000000000000
-0.361628304077590 0.535416913775809 2.302000000000000
-0.360999931698654 0.540784420339503 2.298000000000000
-0.360685745509187 0.546606139999890 2.296000000000000
-0.360528652414453 0.552657706790614 2.295000000000000
-0.360999931698654 0.559677992578504 2.298000000000000
-0.361314117888123 0.566468431236057 2.300000000000000
-0.361471210982856 0.573020801017304 2.301000000000000
-0.360999931698654 0.578571564817505 2.298000000000000
-0.360999931698654 0.584869422230505 2.298000000000000
-0.361314117888123 0.591681785543978 2.300000000000000
-0.361314117888123 0.597985124120958 2.300000000000000
-0.361314117888123 0.604288462697939 2.300000000000000
-0.360842838603921 0.609795377186299 2.297000000000000
-0.360999931698654 0.616358709295506 2.298000000000000
-0.360842838603921 0.622385610848320 2.297000000000000
-0.361314117888123 0.629501817005859 2.300000000000000
-0.361628304077590 0.636358029631172 2.302000000000000
-0.362099583361792 0.643504382190602 2.305000000000000
-0.362256676456526 0.650103341865679 2.306000000000000
-0.361942490267058 0.655853806394326 2.304000000000000
-0.361785397172324 0.661880707947140 2.303000000000000
-0.361628304077590 0.667902128335973 2.302000000000000
-0.361785397172324 0.674503828593040 2.303000000000000
-0.361785397172324 0.680815388915990 2.303000000000000
-0.361471210982856 0.686530225878768 2.301000000000000
-0.361314117888123 0.692535202775661 2.300000000000000
-0.361157024793388 0.698534698508575 2.299000000000000
-0.361471210982856 0.705448463355678 2.301000000000000
-0.361471210982856 0.711754542514648 2.301000000000000
-0.361471210982856 0.718060621673619 2.301000000000000
-0.361471210982856 0.724366700832589 2.301000000000000
-0.361785397172324 0.731307871499592 2.303000000000000
-0.361942490267058 0.737939718158548 2.304000000000000
-0.361785397172324 0.743930992145492 2.303000000000000
-0.361785397172324 0.750242552468442 2.303000000000000
-0.362099583361792 0.757211128955345 2.305000000000000
-0.362413769551260 0.764190667770208 2.307000000000000
-0.362099583361792 0.769845211929205 2.305000000000000
-0.361942490267058 0.775825523588189 2.304000000000000
-0.361942490267058 0.782139824493129 2.304000000000000
-0.361942490267058 0.788454125398069 2.304000000000000
-0.361785397172324 0.794423474729093 2.303000000000000
-0.361628304077590 0.800387342896137 2.302000000000000
-0.361942490267058 0.807397028112890 2.304000000000000
-0.362256676456526 0.814417675657603 2.306000000000000
-0.362570862645994 0.821449285530275 2.308000000000000
-0.362256676456526 0.827057239795443 2.306000000000000
-0.362099583361792 0.833015626798507 2.305000000000000
-0.361942490267058 0.838968532637591 2.304000000000000
-0.361785397172324 0.844915957312695 2.303000000000000
-0.362413769551260 0.852705984882950 2.307000000000000
-0.362727955740728 0.859773222321492 2.309000000000000
-0.362727955740728 0.866101226136382 2.309000000000000
-0.362413769551260 0.871673552835680 2.307000000000000
-0.362570862645994 0.878376654626376 2.308000000000000
-0.363356328119664 0.886618516468157 2.313000000000000
-0.363827607403866 0.894115663522305 2.316000000000000
-0.363984700498600 0.900851652296882 2.317000000000000
-0.363827607403866 0.906810039299946 2.316000000000000
-0.363984700498600 0.913551509238502 2.317000000000000
-0.364613072877536 0.921489528236216 2.321000000000000
-0.365712724540673 0.930648761530999 2.328000000000000
-0.365712724540673 0.937028836403698 2.328000000000000
-0.366026910730141 0.944219400031791 2.330000000000000
-0.365712724540673 0.949788986149098 2.328000000000000
-0.365869817635407 0.956579786563475 2.329000000000000
-0.366026910730141 0.963376068141831 2.330000000000000
-0.366184003824875 0.970177830884166 2.331000000000000
-0.366341096919609 0.976985074790482 2.332000000000000
-0.366655283109077 0.984219487730414 2.334000000000000
-0.367126562393279 0.991889291449932 2.337000000000000
-0.367440748582747 0.999148369627774 2.339000000000000
-0.367597841677481 1.005988500517970 2.340000000000000
-0.367283655488013 1.011536161979358 2.338000000000000
-0.366969469298545 1.017072861112786 2.336000000000000
-0.366969469298545 1.023474860641406 2.336000000000000
-0.366812376203811 1.029435988226460 2.335000000000000
-0.367126562393279 1.036722472224201 2.337000000000000
-0.366969469298545 1.042680859227265 2.336000000000000
-0.367126562393279 1.049531952445421 2.337000000000000
-0.366655283109077 1.054581189741453 2.334000000000000
-0.366655283109077 1.060977708106093 2.334000000000000
-0.367126562393279 1.068746172777251 2.337000000000000
-0.367440748582747 1.076071024922852 2.339000000000000
-0.367597841677481 1.082944042796928 2.340000000000000
-0.367440748582747 1.088891467472032 2.339000000000000
-0.367283655488013 1.094833410983156 2.338000000000000
-0.367754934772215 1.102653946712124 2.341000000000000
-0.367754934772215 1.109069649150694 2.341000000000000
-0.367912027866949 1.115961851098699 2.342000000000000
-0.367440748582747 1.120942573844982 2.339000000000000
-0.366969469298545 1.125906853099324 2.336000000000000
-0.366341096919609 1.130369967606321 2.332000000000000
-0.366498190014343 1.137248466644377 2.333000000000000
-0.366341096919609 1.143152042007641 2.332000000000000
-0.366655283109077 1.150528965211052 2.334000000000000
-0.366184003824875 1.155438432825595 2.331000000000000
-0.365869817635407 1.160829881113553 2.329000000000000
-0.365555631445940 1.166210367073552 2.327000000000000
-0.365712724540673 1.173091606693597 2.328000000000000
-0.365241445256472 1.177951743832320 2.325000000000000
-0.364770165972270 1.182795437479103 2.322000000000000
-0.364455979782802 1.188134814709251 2.320000000000000
-0.364141793593334 1.193463229611440 2.318000000000000
-0.363670514309132 1.198263073946383 2.315000000000000
-0.363042141930196 1.202526125968110 2.311000000000000
-0.363356328119664 1.209905789753512 2.313000000000000
-0.363513421214398 1.216770585881618 2.314000000000000
-0.363513421214398 1.223112292606458 2.314000000000000
-0.363356328119664 1.228922688182062 2.313000000000000
-0.363670514309132 1.236329757787364 2.315000000000000
-0.363984700498600 1.243747789720625 2.317000000000000
-0.365555631445940 1.255493047143491 2.327000000000000
-0.366655283109077 1.265666295774571 2.334000000000000
-0.368540400245885 1.278602982849438 2.346000000000000
-0.369797145003757 1.289414425327363 2.354000000000000
-0.371053889761628 1.300269717117127 2.362000000000000
-0.371210982856362 1.307296207582642 2.363000000000000
-0.371682262140564 1.315440131986428 2.366000000000000
-0.370896796666894 1.319130764129070 2.361000000000000
-0.369797145003757 1.321671075349561 2.354000000000000
-0.368540400245885 1.323608820289077 2.346000000000000
-0.371682262140564 1.341376999939707 2.366000000000000
-0.372467727614234 1.350709613413504 2.371000000000000
-0.371682262140564 1.354345433916346 2.366000000000000
-0.371368075951096 1.359679329982515 2.364000000000000
-0.379379823782529 1.395631019003195 2.415000000000000
-0.408130592172666 -0.145878460669908 2.644000000000000
-0.405352093436241 -0.137688571224985 2.626000000000000
-0.402573594699816 -0.129597342731703 2.608000000000000
-0.398868929717915 -0.121323065286144 2.584000000000000
-0.395009903695103 -0.113136124707443 2.559000000000000
-0.391768321835940 -0.105252095174931 2.538000000000000
-0.390224711426815 -0.097909199037508 2.528000000000000
-0.388372378935865 -0.090549135894499 2.516000000000000
-0.386520046444915 -0.083254846719249 2.504000000000000
-0.385439519158527 -0.076178872305323 2.497000000000000
-0.384667713953965 -0.069196801192701 2.492000000000000
-0.384358991872140 -0.062317216884178 2.490000000000000
-0.383895908749402 -0.055426308490871 2.487000000000000
-0.383432825626665 -0.048551843589505 2.484000000000000
-0.383124103544840 -0.041710627428841 2.482000000000000
-0.383124103544840 -0.034908502929682 2.482000000000000
-0.383587186667577 -0.028140350684871 2.485000000000000
-0.383895908749402 -0.021347171445328 2.487000000000000
-0.383741547708490 -0.014525501115417 2.486000000000000
-0.383587186667577 -0.007709311949486 2.485000000000000
-0.384050269790315 -0.000900050974825 2.488000000000000
-0.384822074994877 0.005930411142110 2.493000000000000
-0.386056963322177 0.012803637300417 2.501000000000000
-0.386365685404002 0.019673552835680 2.503000000000000
-0.386983129567653 0.026575631841178 2.507000000000000
-0.387291851649477 0.033472953196341 2.509000000000000
-0.388218017894953 0.040445563819933 2.515000000000000
-0.388989823099515 0.047432239110297 2.520000000000000
-0.388835462058603 0.054316942825978 2.519000000000000
-0.389144184140428 0.061269075820941 2.521000000000000
-0.388681101017690 0.068096950828478 2.518000000000000
-0.388372378935865 0.074938166989142 2.516000000000000
-0.387600573731303 0.081670845140674 2.511000000000000
-0.387137490608565 0.088446649090401 2.508000000000000
-0.387600573731303 0.095434047894411 2.511000000000000
-0.387600573731303 0.102315649271279 2.511000000000000
-0.387137490608565 0.109066787983096 2.508000000000000
-0.385285158117615 0.115385429969908 2.496000000000000
-0.384050269790315 0.121834172864950 2.488000000000000
-0.383278464585752 0.128394194351112 2.483000000000000
-0.381734854176627 0.134654560602490 2.473000000000000
-0.380036882726590 0.140802924749100 2.462000000000000
-0.379110716481115 0.147190651326716 2.456000000000000
-0.378493272317465 0.153670834178346 2.452000000000000
-0.377567106071990 0.159998267952182 2.446000000000000
-0.377258383990165 0.166565425913847 2.444000000000000
-0.376795300867427 0.173050728172635 2.441000000000000
-0.376023495662865 0.179372319025668 2.436000000000000
-0.375097329417390 0.185590129519905 2.430000000000000
-0.374325524212827 0.191854168151149 2.425000000000000
-0.373708080049177 0.198172656665369 2.421000000000000
-0.372936274844614 0.204384624238803 2.416000000000000
-0.372936274844614 0.211005870326623 2.416000000000000
-0.372010108599139 0.217086651721360 2.410000000000000
-0.370929581312752 0.223041728101380 2.403000000000000
-0.369849054026364 0.228958436333540 2.396000000000000
-0.369540331944539 0.235328272391925 2.394000000000000
-0.369385970903627 0.241788185899158 2.393000000000000
-0.368922887780889 0.248035057524816 2.390000000000000
-0.368151082576327 0.254052443776960 2.385000000000000
-0.367533638412677 0.260151685731982 2.381000000000000
-0.366761833208114 0.266117000926317 2.376000000000000
-0.366298750085377 0.272284395674265 2.373000000000000
-0.365681305921727 0.278317863661527 2.369000000000000
-0.365372583839902 0.284569854694343 2.367000000000000
-0.364755139676252 0.290564954533745 2.363000000000000
-0.365063861758077 0.297292359805528 2.365000000000000
-0.365990028003552 0.304544509792099 2.371000000000000
-0.367842360494502 0.312616663834732 2.383000000000000
-0.365372583839902 0.317004642545891 2.367000000000000
-0.363520251348952 0.321851592004078 2.355000000000000
-0.362131001980739 0.327050991268506 2.346000000000000
-0.361050474694352 0.332485357070427 2.339000000000000
-0.361822279898914 0.339620023788252 2.344000000000000
-0.362902807185302 0.347077355667249 2.351000000000000
-0.363211529267127 0.353821204430973 2.353000000000000
-0.361976640939827 0.359044907176488 2.345000000000000
-0.361050474694352 0.364536463443377 2.339000000000000
-0.360433030530702 0.370312316723579 2.335000000000000
-0.361359196776177 0.377679571153730 2.341000000000000
-0.362902807185302 0.385736005218068 2.351000000000000
-0.360896113653439 0.390010534797169 2.338000000000000
-0.360433030530702 0.395909352510099 2.335000000000000
-0.360896113653439 0.402825496182369 2.338000000000000
-0.359969947407964 0.408182763931748 2.332000000000000
-0.358426336998839 0.412796040407141 2.322000000000000
-0.358735059080664 0.419520705096934 2.324000000000000
-0.358580698039751 0.425706560405168 2.323000000000000
-0.360741752612527 0.434676901826872 2.337000000000000
-0.361976640939827 0.442591549141376 2.345000000000000
-0.360896113653439 0.447677861030568 2.338000000000000
-0.359198142203401 0.451948926514034 2.327000000000000
-0.355956560344239 0.454190097729154 2.306000000000000
-0.357500170753364 0.462506887082541 2.316000000000000
-0.357500170753364 0.468854074971361 2.316000000000000
-0.357963253876101 0.475816808537461 2.319000000000000
-0.357037087630626 0.480924683325751 2.313000000000000
-0.356419643466976 0.486420997242974 2.309000000000000
-0.356882726589714 0.493389211973055 2.312000000000000
-0.357037087630626 0.499941581754301 2.313000000000000
-0.360587391571614 0.511314898351814 2.336000000000000
-0.359352503244314 0.515943894805501 2.328000000000000
-0.358426336998839 0.520977773880061 2.322000000000000
-0.356110921385151 0.523934807035622 2.307000000000000
-0.356265282426064 0.530487176816869 2.308000000000000
-0.356265282426064 0.536812440049769 2.308000000000000
-0.356265282426064 0.543137703282669 2.308000000000000
-0.355802199303326 0.548748759886650 2.305000000000000
-0.355647838262414 0.554824991915283 2.304000000000000
-0.355802199303326 0.561382842860510 2.305000000000000
-0.355956560344239 0.567946174969716 2.306000000000000
-0.355647838262414 0.573767894630104 2.304000000000000
-0.355184755139676 0.579326880176274 2.301000000000000
-0.355339116180589 0.585887471703491 2.302000000000000
-0.355493477221501 0.592453544394688 2.303000000000000
-0.355493477221501 0.598765104717638 2.303000000000000
-0.355339116180589 0.604813930926371 2.302000000000000
-0.355030394098764 0.610591801274919 2.300000000000000
-0.355339116180589 0.617431570408292 2.302000000000000
-0.355493477221501 0.624011346009438 2.303000000000000
-0.355802199303326 0.630870299216742 2.305000000000000
-0.356110921385151 0.637740214752005 2.307000000000000
-0.356265282426064 0.644341915009071 2.308000000000000
-0.356419643466976 0.650949096430118 2.309000000000000
-0.355956560344239 0.656423123934599 2.306000000000000
-0.355647838262414 0.662168107299266 2.304000000000000
-0.355802199303326 0.668772548138323 2.305000000000000
-0.356110921385151 0.675675350657466 2.307000000000000
-0.355956560344239 0.681702252210279 2.306000000000000
-0.355493477221501 0.687126949238940 2.303000000000000
-0.355493477221501 0.693438509561890 2.303000000000000
-0.355339116180589 0.699446227040774 2.302000000000000
-0.355493477221501 0.706061630207791 2.303000000000000
-0.355802199303326 0.712991838546834 2.305000000000000
-0.355956560344239 0.719620944623800 2.306000000000000
-0.356110921385151 0.726255531864747 2.307000000000000
-0.356419643466976 0.733213146023690 2.309000000000000
-0.356574004507889 0.739861436174586 2.310000000000000
-0.356419643466976 0.745869153653470 2.309000000000000
-0.356419643466976 0.752197157468360 2.309000000000000
-0.356728365548801 0.759182177447203 2.311000000000000
-0.356882726589714 0.765846911090039 2.312000000000000
-0.356728365548801 0.771849147404943 2.311000000000000
-0.356419643466976 0.777509172727921 2.309000000000000
-0.356265282426064 0.783497706132874 2.308000000000000
-0.356574004507889 0.790507391349627 2.310000000000000
-0.356265282426064 0.796148232598675 2.308000000000000
-0.355956560344239 0.801778111519762 2.306000000000000
-0.356265282426064 0.808798759064475 2.308000000000000
-0.356574004507889 0.815830368937147 2.310000000000000
-0.356882726589714 0.822872941137780 2.312000000000000
-0.356419643466976 0.828133203247042 2.309000000000000
-0.356265282426064 0.834099811996075 2.308000000000000
-0.356265282426064 0.840425075228975 2.308000000000000
-0.356419643466976 0.847117214691712 2.309000000000000
-0.356728365548801 0.854184452130254 2.311000000000000
-0.357191448671539 0.861635009290573 2.314000000000000
-0.357500170753364 0.868726911967025 2.316000000000000
-0.357345809712451 0.874696261298049 2.315000000000000
-0.357345809712451 0.881040708604879 2.315000000000000
-0.357808892835189 0.888535115077038 2.318000000000000
-0.358580698039751 0.896818085648668 2.323000000000000
-0.358735059080664 0.903573258497174 2.324000000000000
-0.358426336998839 0.909159288106422 2.322000000000000
-0.358271975957926 0.915128637437446 2.321000000000000
-0.359043781162489 0.923474641394846 2.326000000000000
-0.360124308448876 0.932647577599579 2.333000000000000
-0.360896113653439 0.941053874360759 2.338000000000000
-0.361050474694352 0.947866599431055 2.339000000000000
-0.360741752612527 0.953460850786273 2.337000000000000
-0.360741752612527 0.959865590896883 2.337000000000000
-0.360741752612527 0.966270331007493 2.337000000000000
-0.361204835735264 0.973923691235070 2.340000000000000
-0.361050474694352 0.979917705804004 2.339000000000000
-0.361359196776177 0.987171302817866 2.341000000000000
-0.361667918858002 0.994435862159688 2.343000000000000
-0.361976640939827 1.001711383829470 2.345000000000000
-0.361822279898914 1.007708138980394 2.344000000000000
-0.361667918858002 1.013699412967338 2.343000000000000
-0.361513557817089 1.019685205790301 2.342000000000000
-0.361359196776177 1.025665517449285 2.341000000000000
-0.361513557817089 1.032522091831421 2.342000000000000
-0.361822279898914 1.039827759903093 2.344000000000000
-0.361513557817089 1.045358977872541 2.342000000000000
-0.361359196776177 1.051328327203565 2.341000000000000
-0.361204835735264 1.057292195370609 2.340000000000000
-0.361513557817089 1.064614306934220 2.342000000000000
-0.361976640939827 1.072404696261298 2.345000000000000
-0.361822279898914 1.078371305010332 2.344000000000000
-0.361667918858002 1.084332432595386 2.343000000000000
-0.361513557817089 1.090288079016460 2.342000000000000
-0.361513557817089 1.096706522037020 2.342000000000000
-0.361667918858002 1.103595983403035 2.343000000000000
-0.361513557817089 1.109543408078139 2.342000000000000
-0.361822279898914 1.116914850117571 2.344000000000000
-0.361513557817089 1.122380294119259 2.342000000000000
-0.361359196776177 1.128316756466403 2.341000000000000
-0.360896113653439 1.133278295138756 2.338000000000000
-0.360896113653439 1.139685775831355 2.338000000000000
-0.360896113653439 1.146093256523955 2.338000000000000
-0.361050474694352 1.152993680217931 2.339000000000000
-0.360741752612527 1.158412534325789 2.337000000000000
-0.360124308448876 1.162823577774976 2.333000000000000
-0.359661225326139 1.167713861315589 2.330000000000000
-0.359661225326139 1.174099417352269 2.330000000000000
-0.359815586367051 1.180991619300275 2.331000000000000
-0.359661225326139 1.186870529425629 2.330000000000000
-0.359506864285226 1.192743958387003 2.329000000000000
-0.358889420121576 1.197067303212510 2.325000000000000
-0.358580698039751 1.202403939860669 2.323000000000000
-0.358271975957926 1.207729614180867 2.321000000000000
-0.358271975957926 1.214090504979638 2.321000000000000
-0.358117614917014 1.219925565793152 2.320000000000000
-0.358271975957926 1.226812286577178 2.321000000000000
-0.358117614917014 1.232641866226712 2.320000000000000
-0.358426336998839 1.240068119905943 2.322000000000000
-0.359198142203401 1.249115712852781 2.327000000000000
-0.360896113653439 1.261427908990753 2.338000000000000
-0.361822279898914 1.271089030546527 2.344000000000000
-0.363520251348952 1.283508109382108 2.355000000000000
-0.363674612389864 1.290509934609714 2.356000000000000
-0.364292056553514 1.299168726670796 2.360000000000000
-0.363674612389864 1.303423556946553 2.356000000000000
-0.364909500717164 1.314328179212137 2.364000000000000
-0.365372583839902 1.322483065943884 2.367000000000000
-0.363828973430777 1.323355448002938 2.357000000000000
-0.363365890308039 1.328122405354001 2.354000000000000
-0.365218222798989 1.341376999939707 2.366000000000000
-0.366607472167202 1.352988330601886 2.375000000000000
-0.366144389044464 1.357779953190859 2.372000000000000
-0.368768526739977 1.374058341509403 2.389000000000000
-0.376332217744690 1.408922742993702 2.438000000000000
-0.404697766546001 -0.147257795585471 2.669000000000000
-0.403029847687999 -0.139366421293226 2.658000000000000
-0.398632607062359 -0.130640879617196 2.629000000000000
-0.395751656307629 -0.122543808203110 2.610000000000000
-0.392112560617444 -0.114329823561332 2.586000000000000
-0.389079980875623 -0.106413268801763 2.566000000000000
-0.386350659107984 -0.098683797131159 2.548000000000000
-0.384531111262892 -0.091268922348350 2.536000000000000
-0.382408305443617 -0.083853324051896 2.522000000000000
-0.380892015572707 -0.076636494686012 2.512000000000000
-0.379830612663070 -0.069557779690095 2.505000000000000
-0.379982241650161 -0.062717648799899 2.506000000000000
-0.379375725701796 -0.055760604682010 2.502000000000000
-0.378920838740523 -0.048845031050794 2.499000000000000
-0.378314322792159 -0.041929095662755 2.495000000000000
-0.378617580766341 -0.035119472931272 2.497000000000000
-0.378769209753432 -0.028287563787046 2.498000000000000
-0.378769209753432 -0.021441589976047 2.498000000000000
-0.377707806843795 -0.014554715719430 2.491000000000000
-0.377707806843795 -0.007727925982362 2.491000000000000
-0.378162693805068 -0.000902221515761 2.494000000000000
-0.379072467727614 0.005947062918281 2.500000000000000
-0.380133870637252 0.012834353743361 2.507000000000000
-0.380892015572707 0.019744292738006 2.512000000000000
-0.382105047469435 0.026713439265962 2.520000000000000
-0.382559934430708 0.033659729340123 2.523000000000000
-0.383469708353255 0.040670708111575 2.529000000000000
-0.383621337340346 0.047620462281370 2.530000000000000
-0.383772966327437 0.054575697615146 2.531000000000000
-0.383469708353255 0.061463503669639 2.529000000000000
-0.383772966327437 0.068448523648482 2.531000000000000
-0.383621337340346 0.075355152020083 2.530000000000000
-0.383318079366164 0.082223774000647 2.528000000000000
-0.382408305443617 0.088940370417062 2.522000000000000
-0.382559934430708 0.095890124586857 2.523000000000000
-0.383014821391981 0.102926853866687 2.526000000000000
-0.383014821391981 0.109849563973405 2.526000000000000
-0.381346902533980 0.116263764573045 2.515000000000000
-0.380588757598525 0.122911484682887 2.510000000000000
-0.380133870637252 0.129635217574804 2.507000000000000
-0.379072467727614 0.136124707442873 2.500000000000000
-0.376949661908340 0.142175495908311 2.486000000000000
-0.375281743050338 0.148329341218901 2.475000000000000
-0.374371969127792 0.154736251870447 2.469000000000000
-0.373765453179428 0.161241099959987 2.465000000000000
-0.373462195205246 0.167860328979462 2.463000000000000
-0.373007308243972 0.174397702296060 2.460000000000000
-0.371794276347244 0.180550462336182 2.452000000000000
-0.370884502424698 0.186812122142258 2.446000000000000
-0.370126357489242 0.193120010085342 2.441000000000000
-0.369671470527969 0.199564203614279 2.438000000000000
-0.369064954579605 0.205907357366410 2.434000000000000
-0.370429615463425 0.213363965731763 2.443000000000000
-0.366790519773240 0.217897348760983 2.419000000000000
-0.364970971928147 0.223413000224728 2.407000000000000
-0.364212826992692 0.229531788010502 2.402000000000000
-0.364667713953965 0.236409563534912 2.405000000000000
