# This PCD file was generated using the MATLAB® pcwrite function
# from Computer Vision Toolbox®.
# .PCD v.7 - Point Cloud Data file format
VERSION .7
FIELDS x y z
SIZE 8 8 8
TYPE F F F
COUNT 1 1 1
WIDTH 867
HEIGHT 1
VIEWPOINT 0 0 0 1 0 0 0
POINTS 867
DATA ascii
-0.276951027935250 0.948118875484398 2.278000000000000
-0.277680486305580 0.956875604983474 2.284000000000000
-0.277558909910525 0.962713406378979 2.283000000000000
-0.276829451540195 0.966423584352373 2.277000000000000
-0.276464722355030 0.971382382442735 2.274000000000000
-0.276829451540195 0.978904194734794 2.277000000000000
-0.276586298750085 0.984279199530812 2.275000000000000
-0.276829451540195 0.991384805117215 2.277000000000000
-0.276951027935250 0.998063241670001 2.278000000000000
-0.277315757120415 1.005628903273899 2.281000000000000
-0.277437333515470 1.012323783318625 2.282000000000000
-0.277315757120415 1.018131438312240 2.281000000000000
-0.277194180725360 1.023933612141875 2.280000000000000
-0.277072604330305 1.029730304807529 2.279000000000000
-0.277194180725360 1.036430666016235 2.280000000000000
-0.277072604330305 1.042221877517910 2.279000000000000
-0.276829451540195 1.047547551838108 2.277000000000000
-0.276586298750085 1.052862263830347 2.275000000000000
-0.276464722355030 1.058631550676101 2.274000000000000
-0.276829451540195 1.066268467411740 2.277000000000000
-0.276951027935250 1.072979790948406 2.278000000000000
-0.276951027935250 1.079222836721606 2.278000000000000
-0.276707875145140 1.084512883475935 2.276000000000000
-0.276707875145140 1.090750448085155 2.276000000000000
-0.276951027935250 1.097951974041207 2.278000000000000
-0.276951027935250 1.104195019814408 2.278000000000000
-0.276829451540195 1.109950603750212 2.277000000000000
-0.276829451540195 1.116190908941423 2.277000000000000
-0.277315757120415 1.124402986138136 2.281000000000000
-0.277558909910525 1.131645620824038 2.283000000000000
-0.277437333515470 1.137403945341833 2.282000000000000
-0.277194180725360 1.142655623948302 2.280000000000000
-0.277072604330305 1.148400245556146 2.279000000000000
-0.277558909910525 1.156672615556639 2.283000000000000
-0.277802062700635 1.163948137226421 2.285000000000000
-0.278045215490745 1.171234621224163 2.287000000000000
-0.277923639095690 1.176987464577978 2.286000000000000
-0.278045215490745 1.183770043246384 2.287000000000000
-0.278166791885800 1.190558103078770 2.288000000000000
-0.278653097466020 1.198920912284933 2.292000000000000
-0.279017826651185 1.206779816161760 2.295000000000000
-0.279139403046240 1.213598022396036 2.296000000000000
-0.279382555836350 1.220953020943528 2.298000000000000
-0.279260979441295 1.226716826625302 2.297000000000000
-0.279260979441295 1.233011943456312 2.297000000000000
-0.279382555836350 1.239846593182528 2.298000000000000
-0.279868861416570 1.248313544504311 2.302000000000000
-0.279868861416570 1.254622364245271 2.302000000000000
-0.279868861416570 1.260931183986231 2.302000000000000
-0.279747285021515 1.266689508504026 2.301000000000000
-0.279747285021515 1.272995587662996 2.301000000000000
-0.279625708626460 1.278745690434821 2.300000000000000
-0.279504132231405 1.284490312042665 2.299000000000000
-0.279625708626460 1.291352367588781 2.300000000000000
-0.279504132231405 1.297091508032646 2.299000000000000
-0.279504132231405 1.303392106027636 2.299000000000000
-0.279260979441295 1.308553345428435 2.297000000000000
-0.279382555836350 1.315420882138531 2.298000000000000
-0.279747285021515 1.323444220934758 2.301000000000000
-0.279990437811625 1.330906102179859 2.303000000000000
-0.279747285021515 1.336056379252698 2.301000000000000
-0.279382555836350 1.340612311790532 2.298000000000000
-0.279382555836350 1.346910169203532 2.298000000000000
-0.279990437811625 1.356152343471660 2.303000000000000
-0.279990437811625 1.362463903794610 2.303000000000000
-0.279625708626460 1.366992430512544 2.300000000000000
-0.279260979441295 1.371504513738538 2.297000000000000
-0.279382555836350 1.378399456268533 2.298000000000000
-0.277558909910525 1.375658819466902 2.283000000000000
-0.276951027935250 1.378889033835225 2.278000000000000
-0.278653097466020 1.393644743837801 2.292000000000000
-0.283029847687999 1.421914526728896 2.328000000000000
-0.279868861416570 1.412342857769276 2.302000000000000
-0.274519500034151 1.391535833109519 2.258000000000000
-0.290574414315962 0.226940085396535 2.445000000000000
-0.294733966259135 0.236985359811009 2.480000000000000
-0.294615121917902 0.257271509457748 2.479000000000000
-0.293902055870501 0.270203745827464 2.473000000000000
-0.282136466088382 0.272399138361022 2.374000000000000
-0.282017621747148 0.278787796736515 2.373000000000000
-0.281066867017280 0.284329406992869 2.365000000000000
-0.282255310429615 0.292040527726468 2.375000000000000
-0.281542244382214 0.297795179864396 2.369000000000000
-0.278689980192610 0.314058253810779 2.345000000000000
-0.279640734922478 0.321578257318724 2.353000000000000
-0.279521890581244 0.327887438816507 2.352000000000000
-0.281898777405915 0.337176257790104 2.372000000000000
-0.282374154770849 0.344256474624951 2.376000000000000
-0.283919131206885 0.352687283151450 2.389000000000000
-0.282611843453316 0.357580460746644 2.378000000000000
-0.281066867017280 0.362107123868825 2.365000000000000
-0.281304555699747 0.368900303108368 2.367000000000000
-0.280353800969879 0.374118524689903 2.359000000000000
-0.280116112287412 0.380260892443119 2.357000000000000
-0.279521890581244 0.385900078380645 2.352000000000000
-0.278333447168909 0.390677789775437 2.342000000000000
-0.279521890581244 0.398791776061564 2.352000000000000
-0.281066867017280 0.407477458713132 2.365000000000000
-0.278333447168909 0.409933118837116 2.342000000000000
-0.277382692439041 0.414929353277462 2.334000000000000
-0.276788470732873 0.420423288369518 2.329000000000000
-0.275124649955604 0.424240502513114 2.315000000000000
-0.275837716003005 0.431700936730924 2.321000000000000
-0.277263848097808 0.440326688335535 2.333000000000000
-0.275956560344239 0.444614197310941 2.322000000000000
-0.275243494296838 0.449812511304901 2.316000000000000
-0.274886961273137 0.455568818754351 2.313000000000000
-0.275718871661772 0.463305689996328 2.320000000000000
-0.275718871661772 0.469663840213108 2.320000000000000
-0.274530428249437 0.473970171505621 2.310000000000000
-0.275124649955604 0.481340528274584 2.315000000000000
-0.276194249026706 0.489580943089074 2.324000000000000
-0.279284201898777 0.501498550232127 2.350000000000000
-0.279640734922478 0.508587350569767 2.353000000000000
-0.276313093367939 0.508907165525671 2.325000000000000
-0.274768116931904 0.512397888655635 2.312000000000000
-0.273104296154634 0.515592990687502 2.298000000000000
-0.274055050884502 0.523707700487275 2.306000000000000
-0.275718871661772 0.533245342380908 2.320000000000000
-0.275005805614371 0.538207966323728 2.314000000000000
-0.277382692439041 0.549256238934900 2.334000000000000
-0.277382692439041 0.555652757299540 2.334000000000000
-0.277620381121508 0.562530894580773 2.336000000000000
-0.273698517860802 0.560895742779937 2.303000000000000
-0.269776654600096 0.559079712567761 2.270000000000000
-0.269657810258862 0.565051802480775 2.269000000000000
-0.272866607472167 0.578068021244992 2.296000000000000
-0.271915852742299 0.582324298548040 2.288000000000000
-0.271440475377365 0.587565738340194 2.284000000000000
-0.272272385766000 0.595645182330920 2.291000000000000
-0.271440475377365 0.600084716870475 2.284000000000000
-0.271915852742299 0.607406104920441 2.288000000000000
-0.270965098012431 0.611530834287969 2.280000000000000
-0.271083942353664 0.618050317085336 2.281000000000000
-0.272272385766000 0.627038549026271 2.291000000000000
-0.273936206543269 0.637187340703672 2.305000000000000
-0.274055050884502 0.643783559796758 2.306000000000000
-0.271797008401066 0.644746896290896 2.287000000000000
-0.270727409329964 0.648452678370779 2.278000000000000
-0.271440475377365 0.656420120256738 2.284000000000000
-0.271915852742299 0.663840169258344 2.288000000000000
-0.274292739566969 0.675968231173572 2.308000000000000
-0.273698517860802 0.680815388915990 2.303000000000000
-0.271678164059832 0.682054800677472 2.286000000000000
-0.270846253671197 0.686212055272057 2.279000000000000
-0.271202786694898 0.693369370159447 2.282000000000000
-0.272985451813401 0.704222129651453 2.297000000000000
-0.271678164059832 0.707114682393953 2.286000000000000
-0.268944744211461 0.706202167252238 2.263000000000000
-0.268112833822826 0.710200468091404 2.256000000000000
-0.270846253671197 0.723686773403200 2.279000000000000
-0.270965098012431 0.730252846094397 2.280000000000000
-0.272866607472167 0.741669803719518 2.296000000000000
-0.272628918789700 0.747310644968565 2.294000000000000
-0.271915852742299 0.751626491561748 2.288000000000000
-0.270489720647497 0.753921959187253 2.276000000000000
-0.269063588552695 0.756151652844998 2.264000000000000
-0.269063588552695 0.762356330470339 2.264000000000000
-0.271321631036131 0.775010945884468 2.283000000000000
-0.272034697083533 0.783320960519176 2.289000000000000
-0.272034697083533 0.789594152694266 2.289000000000000
-0.272510074448467 0.797258113492981 2.293000000000000
-0.273104296154634 0.805294431685513 2.298000000000000
-0.272391230107233 0.809473249179196 2.292000000000000
-0.271202786694898 0.812195524081494 2.282000000000000
-0.270846253671197 0.817373568731056 2.279000000000000
-0.271083942353664 0.824342145217958 2.281000000000000
-0.271559319718598 0.832049955328514 2.285000000000000
-0.270846253671197 0.836110927796627 2.279000000000000
-0.270727409329964 0.841987097339991 2.278000000000000
-0.270727409329964 0.848230143113191 2.278000000000000
-0.268944744211461 0.848846719249300 2.263000000000000
-0.268231678164060 0.852781624945873 2.257000000000000
-0.268944744211461 0.861250593336001 2.263000000000000
-0.268825899870227 0.867069210657575 2.262000000000000
-0.268588211187760 0.872496286511404 2.260000000000000
-0.267875145140359 0.876357196494247 2.254000000000000
-0.271202786694898 0.893497629396579 2.282000000000000
-0.271202786694898 0.899751637497739 2.282000000000000
-0.271083942353664 0.905608622967173 2.281000000000000
-0.269182432893928 0.905463679066887 2.265000000000000
-0.268825899870227 0.910463585887099 2.262000000000000
-0.269895498941329 0.920309981747724 2.271000000000000
-0.270965098012431 0.930205708084169 2.280000000000000
-0.270252031965030 0.933989881771293 2.274000000000000
-0.271202786694898 0.943529694205862 2.282000000000000
-0.270252031965030 0.946454048661774 2.274000000000000
-0.270608564988730 0.953942973969952 2.277000000000000
-0.270727409329964 0.960604967030799 2.278000000000000
-0.271202786694898 0.968545726610503 2.282000000000000
-0.271440475377365 0.975654072778895 2.284000000000000
-0.271440475377365 0.981913562044036 2.284000000000000
-0.271083942353664 0.986875100716388 2.281000000000000
-0.270965098012431 0.992690977455972 2.280000000000000
-0.270846253671197 0.998501373031577 2.279000000000000
-0.271083942353664 1.005628903273899 2.281000000000000
-0.270965098012431 1.011436558267514 2.280000000000000
-0.270965098012431 1.017685085204694 2.280000000000000
-0.270846253671197 1.023484518452338 2.279000000000000
-0.270965098012431 1.030182139079055 2.280000000000000
-0.271083942353664 1.036885240869751 2.281000000000000
-0.270965098012431 1.042679192953416 2.280000000000000
-0.270727409329964 1.048007607855604 2.278000000000000
-0.270727409329964 1.054250653628805 2.278000000000000
-0.270846253671197 1.060959236583481 2.279000000000000
-0.270965098012431 1.067673300702137 2.280000000000000
-0.271083942353664 1.074392845984773 2.281000000000000
-0.271083942353664 1.080644113503944 2.281000000000000
-0.270965098012431 1.086418881513678 2.280000000000000
-0.270727409329964 1.091708928268007 2.278000000000000
-0.270846253671197 1.098433954714623 2.279000000000000
-0.270727409329964 1.104195019814408 2.278000000000000
-0.270727409329964 1.110438065587608 2.278000000000000
-0.270846253671197 1.117171313780194 2.279000000000000
-0.271202786694898 1.124895929139512 2.282000000000000
-0.271321631036131 1.131645620824038 2.283000000000000
-0.271083942353664 1.136905521176477 2.281000000000000
-0.270965098012431 1.142655623948302 2.280000000000000
-0.271083942353664 1.149408056214818 2.281000000000000
-0.271321631036131 1.156672615556639 2.283000000000000
-0.271321631036131 1.162929364239790 2.283000000000000
-0.271559319718598 1.170210367073552 2.285000000000000
-0.271440475377365 1.175957729263386 2.284000000000000
-0.271797008401066 1.183770043246384 2.287000000000000
-0.271915852742299 1.190558103078770 2.288000000000000
-0.272391230107233 1.198920912284933 2.292000000000000
-0.272866607472167 1.207305646147016 2.296000000000000
-0.272985451813401 1.214126592963282 2.297000000000000
-0.273104296154634 1.220953020943528 2.298000000000000
-0.272747763130934 1.225648723162851 2.295000000000000
-0.272866607472167 1.232475151143097 2.296000000000000
-0.272985451813401 1.239307060287323 2.297000000000000
-0.273460829178335 1.247771271027115 2.301000000000000
-0.273341984837101 1.253532336126900 2.300000000000000
-0.273460829178335 1.260383429345056 2.301000000000000
-0.273460829178335 1.266689508504026 2.301000000000000
-0.273579673519568 1.273548823468152 2.302000000000000
-0.273579673519568 1.279857643209112 2.302000000000000
-0.273223140495868 1.284490312042665 2.299000000000000
-0.273460829178335 1.291913825139907 2.301000000000000
-0.273341984837101 1.297655706165761 2.300000000000000
-0.273579673519568 1.305092922172953 2.302000000000000
-0.273223140495868 1.309692704022626 2.299000000000000
-0.273104296154634 1.315420882138531 2.298000000000000
-0.273223140495868 1.322293900012606 2.299000000000000
-0.273460829178335 1.329750300093728 2.301000000000000
-0.273341984837101 1.335475737627643 2.300000000000000
-0.273223140495868 1.341195693997577 2.299000000000000
-0.272985451813401 1.346324046414497 2.297000000000000
-0.273341984837101 1.354385753358583 2.300000000000000
-0.273341984837101 1.360689091935563 2.300000000000000
-0.273817362202035 1.369369808652565 2.304000000000000
-0.273817362202035 1.375684109557506 2.304000000000000
-0.272391230107233 1.374800502074621 2.292000000000000
-0.270727409329964 1.372645988062025 2.278000000000000
-0.269538965917629 1.372835965205571 2.268000000000000
-0.272628918789700 1.394860838727712 2.294000000000000
-0.276313093367939 1.420082162648060 2.325000000000000
-0.273936206543269 1.414183443596082 2.305000000000000
-0.268825899870227 1.394000909873220 2.262000000000000
-0.273223140495868 1.423103467932450 2.299000000000000
-0.287261799057441 0.256752607663763 2.474000000000000
-0.285636227033673 0.262041514335984 2.460000000000000
-0.279482275800833 0.276185647024002 2.407000000000000
-0.277276142340004 0.280550045767719 2.388000000000000
-0.279017826651185 0.288897913320873 2.403000000000000
-0.278321152926713 0.294745745246461 2.397000000000000
-0.275534458028823 0.298297999923264 2.373000000000000
-0.275534458028823 0.311304802047763 2.373000000000000
-0.274373335154703 0.316468935503143 2.363000000000000
-0.275882794891059 0.324721606200293 2.376000000000000
-0.275534458028823 0.330815005234512 2.373000000000000
-0.275070008879175 0.336749812270134 2.369000000000000
-0.275998907178471 0.344401363713598 2.377000000000000
-0.276115019465884 0.351063356774445 2.378000000000000
-0.275534458028823 0.356828609483510 2.373000000000000
-0.274257222867291 0.361647791364974 2.362000000000000
-0.273212212280582 0.366718383275872 2.353000000000000
-0.272747763130934 0.372532604703935 2.349000000000000
-0.271470527969401 0.377195573411970 2.338000000000000
-0.271238303394577 0.383274907779416 2.336000000000000
-0.273908886005054 0.393513623433072 2.359000000000000
-0.274721672016939 0.401165536633359 2.366000000000000
-0.276695580902944 0.410578767066974 2.383000000000000
-0.275998907178471 0.416059361005903 2.377000000000000
-0.272283313981285 0.416884890075256 2.345000000000000
-0.271586640256813 0.422228454914686 2.339000000000000
-0.270773854244929 0.427355875533728 2.332000000000000
-0.272863875418346 0.437094873467330 2.350000000000000
-0.271818864831637 0.441836595539429 2.341000000000000
-0.272399426268698 0.449209692890382 2.346000000000000
-0.270657741957517 0.452725804771901 2.331000000000000
-0.271354415681989 0.460295862269311 2.337000000000000
-0.269612731370808 0.463705091453221 2.322000000000000
-0.271702752544225 0.473712666421841 2.340000000000000
-0.271006078819753 0.478894536923861 2.334000000000000
-0.270077180520456 0.483627675493168 2.326000000000000
-0.266477699610682 0.483471714453281 2.295000000000000
-0.269961068233044 0.496163459272211 2.325000000000000
-0.269844955945632 0.502319168178554 2.324000000000000
-0.270077180520456 0.509126050328048 2.326000000000000
-0.268916057646336 0.513284390193101 2.316000000000000
-0.270309405095280 0.522323969678201 2.328000000000000
-0.271702752544225 0.531429323131060 2.340000000000000
-0.270425517382692 0.535313966553937 2.329000000000000
-0.271470527969401 0.543790071419567 2.338000000000000
-0.271354415681989 0.549962223817850 2.337000000000000
-0.271238303394577 0.556128895052153 2.336000000000000
-0.270657741957517 0.561326847289290 2.331000000000000
-0.268451608496687 0.563087693142516 2.312000000000000
-0.265316576736562 0.562774071901909 2.285000000000000
-0.268451608496687 0.575760144264236 2.312000000000000
-0.267638822484803 0.580333967321300 2.305000000000000
-0.263923229287617 0.578506613024342 2.273000000000000
-0.264039341575029 0.584993208837829 2.274000000000000
-0.264387678437265 0.592005272879749 2.277000000000000
-0.264736015299501 0.599033780413609 2.280000000000000
-0.266245475035858 0.608733478401473 2.293000000000000
-0.265316576736562 0.612871910678952 2.285000000000000
-0.263110443275733 0.613985979182539 2.266000000000000
-0.262645994126084 0.619101352203154 2.262000000000000
-0.265548801311386 0.632211474268676 2.287000000000000
-0.267174373335155 0.642387671765976 2.301000000000000
-0.268219383921863 0.651231014618264 2.310000000000000
-0.266129362748446 0.652437901152689 2.292000000000000
-0.263226555563145 0.651534331270589 2.267000000000000
-0.264503790724677 0.660938769917180 2.278000000000000
-0.265316576736562 0.669231979303125 2.285000000000000
-0.266129362748446 0.677563556836930 2.292000000000000
-0.264271566149853 0.679071183876608 2.276000000000000
-0.265548801311386 0.688620873368669 2.287000000000000
-0.267290485622567 0.699446227040774 2.302000000000000
-0.267987159347039 0.707594547338073 2.308000000000000
-0.265548801311386 0.707424006401999 2.287000000000000
-0.261600983539376 0.703081521351874 2.253000000000000
-0.264736015299501 0.717755792220036 2.280000000000000
-0.265897138173622 0.727179776697379 2.290000000000000
-0.266129362748446 0.734096282126472 2.292000000000000
-0.263574892425381 0.733271103851614 2.270000000000000
-0.265432689023974 0.744704504968675 2.286000000000000
-0.265548801311386 0.751297983479772 2.287000000000000
-0.266942148760331 0.761540678458477 2.299000000000000
-0.261833208114200 0.753145749631392 2.255000000000000
-0.264736015299501 0.767744007717479 2.280000000000000
-0.264619903012089 0.773653064244723 2.279000000000000
-0.265316576736562 0.781952116551471 2.285000000000000
-0.265781025886210 0.789594152694266 2.289000000000000
-0.265897138173622 0.796215037025263 2.290000000000000
-0.267406597909979 0.807046595374994 2.303000000000000
-0.267754934772215 0.814417675657603 2.306000000000000
-0.267522710197391 0.820025629922771 2.304000000000000
-0.265084352161738 0.818808186666520 2.283000000000000
-0.265664913598798 0.826871910678952 2.288000000000000
-0.266361587323270 0.835327176159129 2.294000000000000
-0.266013250461034 0.840513442554661 2.291000000000000
-0.265432689023974 0.844944031834600 2.286000000000000
-0.264503790724677 0.848230143113191 2.278000000000000
-0.263458780137969 0.851097307104137 2.269000000000000
-0.263342667850557 0.856937849081631 2.268000000000000
-0.263226555563145 0.862772909895145 2.267000000000000
-0.262297657263848 0.865919251492247 2.259000000000000
-0.262878218700908 0.874040527726468 2.264000000000000
-0.263458780137969 0.882189209780589 2.269000000000000
-0.263226555563145 0.887624507380387 2.267000000000000
-0.265432689023974 0.901328765696683 2.286000000000000
-0.264503790724677 0.904417555071995 2.278000000000000
-0.263342667850557 0.906662968708035 2.268000000000000
-0.262762106413496 0.910866089682805 2.263000000000000
-0.264155453862441 0.921930959258508 2.275000000000000
-0.265200464449150 0.931837647922913 2.284000000000000
-0.265548801311386 0.939329313813081 2.287000000000000
-0.265200464449150 0.944356626453194 2.284000000000000
-0.265200464449150 0.950616115718334 2.284000000000000
-0.264736015299501 0.955199815832890 2.280000000000000
-0.264852127586914 0.961870030639707 2.281000000000000
-0.265432689023974 0.970243440417007 2.286000000000000
-0.265548801311386 0.976935579879743 2.287000000000000
-0.265316576736562 0.982343471659642 2.285000000000000
-0.264852127586914 0.986875100716388 2.281000000000000
-0.264619903012089 0.992255586676386 2.279000000000000
-0.264619903012089 0.998501373031577 2.279000000000000
-0.264968239874326 1.006069775217465 2.282000000000000
-0.265084352161738 1.012767395844181 2.283000000000000
-0.264852127586914 1.018131438312240 2.281000000000000
-0.264736015299501 1.023933612141875 2.280000000000000
-0.264852127586914 1.030633973350581 2.281000000000000
-0.264968239874326 1.037339815723267 2.282000000000000
-0.264852127586914 1.043136508388921 2.281000000000000
-0.264619903012089 1.048467663873100 2.279000000000000
-0.264736015299501 1.055176246827776 2.280000000000000
-0.264852127586914 1.061890310946433 2.281000000000000
-0.264736015299501 1.067673300702137 2.280000000000000
-0.264736015299501 1.073921827639318 2.280000000000000
-0.264736015299501 1.080170354576498 2.280000000000000
-0.264968239874326 1.087371880532550 2.282000000000000
-0.264736015299501 1.092667408450859 2.280000000000000
-0.264736015299501 1.098915935388039 2.280000000000000
-0.264619903012089 1.104679741069813 2.279000000000000
-0.264736015299501 1.111412989262400 2.280000000000000
-0.264852127586914 1.118151718618966 2.281000000000000
-0.265084352161738 1.125388872140888 2.283000000000000
-0.265084352161738 1.131645620824038 2.283000000000000
-0.264968239874326 1.137403945341833 2.282000000000000
-0.264852127586914 1.143156788695647 2.281000000000000
-0.264968239874326 1.149911961544153 2.282000000000000
-0.265084352161738 1.156672615556639 2.283000000000000
-0.265084352161738 1.162929364239790 2.283000000000000
-0.265200464449150 1.169698239998246 2.284000000000000
-0.265200464449150 1.175957729263386 2.284000000000000
-0.265664913598798 1.184287651485670 2.288000000000000
-0.265781025886210 1.191078451900045 2.289000000000000
-0.266129362748446 1.198920912284933 2.292000000000000
-0.266361587323270 1.206253986176504 2.294000000000000
-0.266593811898094 1.213598022396036 2.296000000000000
-0.266709924185506 1.220421709794292 2.297000000000000
-0.266593811898094 1.226182774894077 2.296000000000000
-0.266826036472919 1.233548735769528 2.298000000000000
-0.266942148760331 1.240386126077734 2.299000000000000
-0.267174373335155 1.247771271027115 2.301000000000000
-0.267174373335155 1.254077350186086 2.301000000000000
-0.267174373335155 1.260383429345056 2.301000000000000
-0.267406597909979 1.267790498950357 2.303000000000000
-0.267290485622567 1.273548823468152 2.302000000000000
-0.267522710197391 1.280969595983403 2.304000000000000
-0.267174373335155 1.285607745980937 2.301000000000000
-0.267290485622567 1.292475282691032 2.302000000000000
-0.267058261047743 1.297655706165761 2.300000000000000
-0.267174373335155 1.304525983457847 2.301000000000000
-0.267174373335155 1.310832062616817 2.301000000000000
-0.266942148760331 1.315993302017616 2.299000000000000
-0.266942148760331 1.322293900012606 2.299000000000000
-0.266826036472919 1.328016596964531 2.298000000000000
-0.267174373335155 1.336056379252698 2.301000000000000
-0.267290485622567 1.342945840618714 2.302000000000000
-0.266709924185506 1.346324046414497 2.297000000000000
-0.266826036472919 1.353208026616532 2.298000000000000
-0.266709924185506 1.358914280076517 2.297000000000000
-0.267754934772215 1.370558497722576 2.306000000000000
-0.267406597909979 1.375087024440510 2.303000000000000
-0.266129362748446 1.374800502074621 2.292000000000000
-0.264968239874326 1.375056253185927 2.282000000000000
-0.265084352161738 1.381915568150052 2.283000000000000
-0.268219383921863 1.404589597846999 2.310000000000000
-0.270193292807868 1.421303738701951 2.327000000000000
-0.269496619083396 1.423999901339048 2.321000000000000
-0.267638822484803 1.420500485083012 2.305000000000000
-0.268451608496687 1.431150594980350 2.312000000000000
-0.271934977119049 1.456139331188371 2.342000000000000
-0.272631650843522 1.466304719830303 2.348000000000000
-0.281296359538283 0.257479070175342 2.481000000000000
-0.281749880472645 0.264704537855659 2.485000000000000
-0.279935796735196 0.269766699736356 2.469000000000000
-0.277328051362612 0.273957148260004 2.446000000000000
-0.271999180383854 0.275267705529946 2.399000000000000
-0.275740728092343 0.292384404992244 2.432000000000000
-0.271999180383854 0.294991674111914 2.399000000000000
-0.270298476879995 0.299680755085150 2.384000000000000
-0.270525237347176 0.306471193742703 2.386000000000000
-0.270298476879995 0.312747850013429 2.384000000000000
-0.274266785055666 0.323968834101610 2.419000000000000
-0.271772419916672 0.327591620396507 2.397000000000000
-0.270978758281538 0.333184939953849 2.390000000000000
-0.270411857113585 0.339024188376644 2.385000000000000
-0.269504815244860 0.344401363713598 2.377000000000000
-0.268937914076907 0.350177578750623 2.372000000000000
-0.268937914076907 0.356678239230883 2.372000000000000
-0.266556929171505 0.359963572184189 2.351000000000000
-0.265536507069189 0.365004017693197 2.342000000000000
-0.265423126835599 0.371263868715160 2.341000000000000
-0.264402704733283 0.376227577928449 2.332000000000000
-0.264629465200464 0.382946761454262 2.334000000000000
-0.264856225667646 0.389676907308036 2.336000000000000
-0.267690731507411 0.400317765000575 2.361000000000000
-0.267010450105867 0.405754509627664 2.355000000000000
-0.268937914076907 0.415184183553219 2.372000000000000
-0.268484393142545 0.420973739743372 2.368000000000000
-0.266556929171505 0.424394654768887 2.351000000000000
-0.265536507069189 0.429188447898796 2.342000000000000
-0.265196366368417 0.435048897463865 2.339000000000000
-0.266216788470733 0.443157764342836 2.348000000000000
-0.265876647769961 0.449018213907905 2.345000000000000
-0.265990028003552 0.455639098238902 2.346000000000000
-0.265196366368417 0.460689782562225 2.339000000000000
-0.264402704733283 0.465702098737688 2.332000000000000
-0.263382282630968 0.470271164144418 2.323000000000000
-0.262928761696605 0.475816808537461 2.319000000000000
-0.264062564032511 0.484251442916418 2.329000000000000
-0.263722423331740 0.490002269201888 2.326000000000000
-0.262702001229424 0.494456230165038 2.317000000000000
-0.263722423331740 0.502751456619328 2.326000000000000
-0.261454818659928 0.504748354280515 2.306000000000000
-0.262815381463015 0.513727640961835 2.318000000000000
-0.262588620995834 0.519631578081921 2.316000000000000
-0.264856225667646 0.530520896937674 2.336000000000000
-0.267350590806639 0.541979533333699 2.358000000000000
-0.265082986134827 0.543790071419567 2.338000000000000
-0.263835803565330 0.547608940874684 2.327000000000000
-0.260321016324022 0.546606139999890 2.296000000000000
-0.259527354688887 0.551212850040835 2.289000000000000
-0.259980875623250 0.558460242377071 2.293000000000000
-0.261001297725565 0.566961012480610 2.302000000000000
-0.261794959360699 0.575013050651436 2.309000000000000
-0.262021719827881 0.581844598038839 2.311000000000000
-0.262248480295062 0.588687107754203 2.313000000000000
-0.259867495389659 0.589623761942086 2.292000000000000
-0.259640734922478 0.595385188798693 2.290000000000000
-0.260661157024793 0.604025728583722 2.299000000000000
-0.261001297725565 0.611122750667332 2.302000000000000
-0.260321016324022 0.615822278739113 2.296000000000000
-0.257146369783485 0.614527890902912 2.268000000000000
-0.255785806980398 0.617459173550095 2.256000000000000
-0.257713270951438 0.628341355930345 2.273000000000000
-0.259300594221706 0.638479185279786 2.287000000000000
-0.260774537258384 0.648411832736800 2.300000000000000
-0.262588620995834 0.659269711635963 2.316000000000000
-0.259980875623250 0.659006714425875 2.293000000000000
-0.259640734922478 0.664420449126576 2.290000000000000
-0.260207636090431 0.672160784464189 2.295000000000000
-0.260547776791203 0.679337283425508 2.298000000000000
-0.259073833754525 0.681756438997385 2.285000000000000
-0.260661157024793 0.692234100513585 2.299000000000000
-0.261681579127109 0.701269284105172 2.308000000000000
-0.260887917491975 0.705448463355678 2.301000000000000
-0.257713270951438 0.703093470289351 2.273000000000000
-0.258053411652210 0.710259006922710 2.276000000000000
-0.260321016324022 0.722792674972457 2.296000000000000
-0.263042141930196 0.736706149317869 2.320000000000000
-0.259300594221706 0.732494850446441 2.287000000000000
-0.259980875623250 0.740700722965529 2.293000000000000
-0.256466088381941 0.736886084969004 2.262000000000000
-0.260887917491975 0.755897096627440 2.301000000000000
-0.262588620995834 0.767171905745904 2.316000000000000
-0.262135100061471 0.772183136650899 2.312000000000000
-0.258053411652210 0.766397088405694 2.276000000000000
-0.259300594221706 0.776368827524213 2.287000000000000
-0.258733693053753 0.780925483575692 2.282000000000000
-0.259980875623250 0.790973958989931 2.293000000000000
-0.260434396557612 0.798648882116606 2.297000000000000
-0.262588620995834 0.811602220967644 2.316000000000000
-0.263835803565330 0.821834315375213 2.327000000000000
-0.262815381463015 0.825008424549037 2.318000000000000
-0.259640734922478 0.821318768053584 2.290000000000000
-0.259527354688887 0.827233305744808 2.289000000000000
-0.260774537258384 0.837511990046206 2.300000000000000
-0.261228058192746 0.845282833542531 2.304000000000000
-0.259867495389659 0.847161732705557 2.292000000000000
-0.259300594221706 0.851581359657537 2.287000000000000
-0.259754115156069 0.859349462571872 2.291000000000000
-0.259413974455297 0.864494620237554 2.288000000000000
-0.258166791885800 0.866578701293007 2.277000000000000
-0.257826651185028 0.871669047318889 2.274000000000000
-0.258960453520934 0.881761733801790 2.284000000000000
-0.257373130250666 0.882578010666345 2.270000000000000
-0.257826651185028 0.890365297654610 2.274000000000000
-0.257826651185028 0.896597381099850 2.274000000000000
-0.258847073287344 0.906402668230625 2.283000000000000
-0.258506932586572 0.911460127272628 2.280000000000000
-0.258620312820163 0.918111158005514 2.281000000000000
-0.259413974455297 0.927199136168557 2.288000000000000
-0.259980875623250 0.935509512560087 2.293000000000000
-0.260094255856840 0.942204392604813 2.294000000000000
-0.259867495389659 0.947664355442522 2.292000000000000
-0.259527354688887 0.952697149246614 2.289000000000000
-0.259300594221706 0.958132446846412 2.287000000000000
-0.259187213988116 0.963978469987887 2.286000000000000
-0.259187213988116 0.970243440417007 2.286000000000000
-0.259187213988116 0.976508410846127 2.286000000000000
-0.259073833754525 0.982343471659642 2.285000000000000
-0.258620312820163 0.986875100716388 2.281000000000000
-0.258393552352981 0.992255586676386 2.279000000000000
-0.258393552352981 0.998501373031577 2.279000000000000
-0.258847073287344 1.006510647161031 2.283000000000000
-0.258847073287344 1.012767395844181 2.283000000000000
-0.258620312820163 1.018131438312240 2.281000000000000
-0.258506932586572 1.023933612141875 2.280000000000000
-0.258506932586572 1.030182139079055 2.280000000000000
-0.258620312820163 1.036885240869751 2.281000000000000
-0.258506932586572 1.042679192953416 2.280000000000000
-0.258506932586572 1.048927719890596 2.280000000000000
-0.258620312820163 1.055639043427262 2.281000000000000
-0.258620312820163 1.061890310946433 2.281000000000000
-0.258393552352981 1.067205022938671 2.279000000000000
-0.258393552352981 1.073450809293861 2.279000000000000
-0.258506932586572 1.080170354576498 2.280000000000000
-0.258847073287344 1.087848380041986 2.283000000000000
-0.258620312820163 1.093146648542284 2.281000000000000
-0.258506932586572 1.098915935388039 2.280000000000000
-0.258393552352981 1.104679741069813 2.279000000000000
-0.258506932586572 1.111412989262400 2.280000000000000
-0.258620312820163 1.118151718618966 2.281000000000000
-0.258847073287344 1.125388872140888 2.283000000000000
-0.258847073287344 1.131645620824038 2.283000000000000
-0.258847073287344 1.137902369507188 2.283000000000000
-0.258733693053753 1.143657953442993 2.282000000000000
-0.258847073287344 1.150415866873489 2.283000000000000
-0.258847073287344 1.156672615556639 2.283000000000000
-0.258847073287344 1.162929364239790 2.283000000000000
-0.258960453520934 1.169698239998246 2.284000000000000
-0.259073833754525 1.176472596920682 2.285000000000000
-0.259527354688887 1.184805259724955 2.289000000000000
-0.259754115156069 1.192119149542597 2.291000000000000
-0.259867495389659 1.198920912284933 2.292000000000000
-0.260094255856840 1.206253986176504 2.294000000000000
-0.260321016324022 1.213598022396036 2.296000000000000
-0.260547776791203 1.220953020943528 2.298000000000000
-0.260774537258384 1.228318981818979 2.300000000000000
-0.260887917491975 1.235159112709175 2.301000000000000
-0.261001297725565 1.242004724763351 2.302000000000000
-0.260774537258384 1.247228997549920 2.300000000000000
-0.260774537258384 1.253532336126900 2.300000000000000
-0.260774537258384 1.259835674703880 2.300000000000000
-0.260887917491975 1.266689508504026 2.301000000000000
-0.260887917491975 1.272995587662996 2.301000000000000
-0.261001297725565 1.279857643209112 2.302000000000000
-0.261001297725565 1.286166462950072 2.302000000000000
-0.261001297725565 1.292475282691032 2.302000000000000
-0.260887917491975 1.298219904298877 2.301000000000000
-0.261001297725565 1.305092922172953 2.302000000000000
-0.261114677959156 1.311971421211008 2.303000000000000
-0.260774537258384 1.316565721896702 2.300000000000000
-0.260547776791203 1.321718739551531 2.298000000000000
-0.260321016324022 1.326860794878400 2.296000000000000
-0.260661157024793 1.334895096002587 2.299000000000000
-0.260887917491975 1.342362458411668 2.301000000000000
-0.260661157024793 1.347496291992567 2.299000000000000
-0.260661157024793 1.353796889987558 2.299000000000000
-0.260774537258384 1.360689091935563 2.300000000000000
-0.261341438426337 1.369964153187571 2.305000000000000
-0.261114677959156 1.375087024440510 2.303000000000000
-0.260661157024793 1.378999281967519 2.299000000000000
-0.260321016324022 1.383492181119583 2.296000000000000
-0.260887917491975 1.392811091683430 2.301000000000000
-0.261228058192746 1.400941313177266 2.304000000000000
-0.263155522163787 1.417639010540279 2.321000000000000
-0.263495662864558 1.425840487165854 2.324000000000000
-0.262135100061471 1.424814369419490 2.312000000000000
-0.261568198893518 1.428055546115773 2.307000000000000
-0.260887917491975 1.430647566637251 2.301000000000000
-0.259527354688887 1.429459754553477 2.289000000000000
-0.260887917491975 1.443259724955192 2.301000000000000
-0.265998224165016 0.295606496275549 2.404000000000000
-0.263674612389864 0.299555050070433 2.383000000000000
-0.265998224165016 0.308783214483428 2.404000000000000
-0.262789426951711 0.311567174405157 2.375000000000000
-0.269096373198552 0.332374977390199 2.432000000000000
-0.265998224165016 0.335136650899185 2.404000000000000
-0.263895908749402 0.339024188376644 2.385000000000000
-0.262568130592173 0.343821807359011 2.373000000000000
-0.263010723311249 0.350915727103808 2.377000000000000
-0.260576463356328 0.354121944936227 2.355000000000000
-0.260023222457482 0.359810461349572 2.350000000000000
-0.260244518817021 0.366562531859266 2.352000000000000
-0.261351000614712 0.374594300685694 2.362000000000000
-0.262678778771942 0.383003546313095 2.374000000000000
-0.262789426951711 0.389673761119911 2.375000000000000
-0.263121371491018 0.396683084579841 2.378000000000000
-0.260576463356328 0.399300439041235 2.355000000000000
-0.258916740659791 0.403170085999463 2.340000000000000
-0.259691277918175 0.410808296289800 2.347000000000000
-0.263232019670788 0.422929276541166 2.379000000000000
-0.262900075131480 0.428907571131805 2.376000000000000
-0.260244518817021 0.431021020263863 2.352000000000000
-0.260465815176559 0.437838864741316 2.354000000000000
-0.261129704255174 0.445422625148676 2.360000000000000
-0.259469981558637 0.449018213907905 2.345000000000000
-0.258252851581176 0.453308463465301 2.334000000000000
-0.258142203401407 0.459508021683485 2.333000000000000
-0.258252851581176 0.466101500194581 2.334000000000000
-0.257146369783485 0.470473605454854 2.324000000000000
-0.256814425244177 0.476227172322314 2.321000000000000
-0.257257017963254 0.483419753018751 2.325000000000000
-0.258916740659791 0.492951551991581 2.340000000000000
-0.260133870637252 0.501711953870524 2.351000000000000
-0.257035721603716 0.502103023958168 2.323000000000000
-0.254490813469025 0.503435045466255 2.300000000000000
-0.253937572570180 0.508630257121402 2.295000000000000
-0.255154702547640 0.517387918418355 2.306000000000000
-0.257035721603716 0.527568511809168 2.323000000000000
-0.259248685199098 0.538531826378650 2.343000000000000
-0.260023222457482 0.546581123967486 2.350000000000000
-0.254933406188102 0.542196390105403 2.304000000000000
-0.253384331671334 0.545177726742051 2.290000000000000
-0.252941738952257 0.550490421665945 2.286000000000000
-0.253826924390410 0.558703792417358 2.294000000000000
-0.254380165289256 0.566222140613781 2.299000000000000
-0.253826924390410 0.571277582587438 2.294000000000000
-0.256482480704870 0.583607000542635 2.318000000000000
-0.255154702547640 0.586905521176477 2.306000000000000
-0.254933406188102 0.592710797344924 2.304000000000000
-0.254712109828564 0.598505111185411 2.302000000000000
-0.254933406188102 0.605339399154805 2.304000000000000
-0.254822758008333 0.611388225363538 2.303000000000000
-0.255154702547640 0.618504431521078 2.306000000000000
-0.253937572570180 0.621843699127947 2.295000000000000
-0.251945905334335 0.623206798835801 2.277000000000000
-0.250950071716413 0.626959170809513 2.268000000000000
-0.251835257154566 0.635408231612065 2.276000000000000
-0.253826924390410 0.646720323607921 2.294000000000000
-0.255597295266717 0.657561759015144 2.310000000000000
-0.258031555221638 0.670215289158806 2.332000000000000
-0.255929239806024 0.671093667611254 2.313000000000000
-0.256371832525101 0.678604155818530 2.317000000000000
-0.256150536165562 0.684362842093147 2.315000000000000
-0.254933406188102 0.687425310919027 2.304000000000000
-0.255707943446486 0.695847327658501 2.311000000000000
-0.255597295266717 0.701876969793305 2.310000000000000
-0.255597295266717 0.708207714190185 2.310000000000000
-0.253163035311796 0.707733330410046 2.288000000000000
-0.254269517109487 0.717124427903509 2.298000000000000
-0.254712109828564 0.724681506004615 2.302000000000000
-0.256814425244177 0.737023695071885 2.321000000000000
-0.256925073423946 0.743704872206662 2.322000000000000
-0.253384331671334 0.739731642211540 2.290000000000000
-0.255044054367871 0.750894087468415 2.305000000000000
-0.253163035311796 0.751626491561748 2.288000000000000
-0.256482480704870 0.767834403073837 2.318000000000000
-0.257588962502561 0.777526964586199 2.328000000000000
-0.255154702547640 0.776498983244082 2.306000000000000
-0.253605628030872 0.778066179573894 2.292000000000000
-0.254380165289256 0.786743070438438 2.299000000000000
-0.254380165289256 0.793043668433428 2.299000000000000
-0.254380165289256 0.799344266428419 2.299000000000000
-0.255265350727409 0.808448326326579 2.307000000000000
-0.257257017963254 0.821127968735441 2.325000000000000
-0.255154702547640 0.820737457726523 2.306000000000000
-0.255044054367871 0.826698585311577 2.305000000000000
-0.255597295266717 0.834822602127788 2.310000000000000
-0.256261184345332 0.843338160411745 2.316000000000000
-0.255707943446486 0.847850967151384 2.311000000000000
-0.255486647086948 0.853445218506602 2.309000000000000
-0.255597295266717 0.860145579715308 2.310000000000000
-0.254490813469025 0.862725344354127 2.300000000000000
-0.254048220749949 0.867517328699923 2.296000000000000
-0.254712109828564 0.876093179787660 2.302000000000000
-0.254048220749949 0.880102081197963 2.296000000000000
-0.253494979851103 0.884464155928153 2.291000000000000
-0.252056553514104 0.885688417752394 2.278000000000000
-0.251060719896182 0.888407590315879 2.269000000000000
-0.251060719896182 0.894625970851170 2.269000000000000
-0.251945905334335 0.904020532440269 2.277000000000000
-0.252831090772488 0.913458943341208 2.285000000000000
-0.252831090772488 0.919721173188338 2.285000000000000
-0.252831090772488 0.925983403035469 2.285000000000000
-0.253052387132026 0.933061602801971 2.287000000000000
-0.253937572570180 0.942615118146489 2.295000000000000
-0.254048220749949 0.949318219937186 2.296000000000000
-0.253937572570180 0.955194389480550 2.295000000000000
-0.253384331671334 0.959389288709350 2.290000000000000
-0.253384331671334 0.965665221466431 2.290000000000000
-0.253273683491565 0.971516725771885 2.289000000000000
-0.253273683491565 0.977789917946975 2.289000000000000
-0.253052387132026 0.983203290890853 2.287000000000000
-0.252720442592719 0.988173051309176 2.284000000000000
-0.252609794412950 0.993997149794730 2.283000000000000
-0.252609794412950 1.000253898477881 2.283000000000000
-0.252720442592719 1.006951519104597 2.284000000000000
-0.252720442592719 1.013211008369737 2.284000000000000
-0.252499146233181 1.018577791419786 2.282000000000000
-0.252388498053412 1.024382705831410 2.281000000000000
-0.252388498053412 1.030633973350581 2.281000000000000
-0.252388498053412 1.036885240869751 2.281000000000000
-0.252388498053412 1.043136508388921 2.281000000000000
-0.252388498053412 1.049387775908092 2.281000000000000
-0.252499146233181 1.056101840026748 2.282000000000000
-0.252167201693873 1.060959236583481 2.279000000000000
-0.251945905334335 1.066268467411740 2.277000000000000
-0.251945905334335 1.072508772602950 2.277000000000000
-0.252277849873643 1.080170354576498 2.280000000000000
-0.252499146233181 1.087371880532550 2.282000000000000
-0.252388498053412 1.093146648542284 2.281000000000000
-0.252388498053412 1.099397916061455 2.281000000000000
-0.252277849873643 1.105164462325219 2.280000000000000
-0.252388498053412 1.111900451099795 2.281000000000000
-0.252277849873643 1.117661516199580 2.280000000000000
-0.252499146233181 1.124895929139512 2.282000000000000
-0.252388498053412 1.130654253657307 2.281000000000000
-0.252609794412950 1.137902369507188 2.283000000000000
-0.252388498053412 1.143156788695647 2.281000000000000
-0.252499146233181 1.149911961544153 2.282000000000000
-0.252167201693873 1.154646031911337 2.279000000000000
-0.252388498053412 1.161910591253159 2.281000000000000
-0.252609794412950 1.169186112922940 2.283000000000000
-0.253163035311796 1.178017199892569 2.288000000000000
-0.253273683491565 1.184805259724955 2.289000000000000
-0.253384331671334 1.191598800721321 2.290000000000000
-0.253384331671334 1.197874733478401 2.290000000000000
-0.253605628030872 1.205202326205993 2.292000000000000
-0.253716276210641 1.212012310694299 2.293000000000000
-0.254158868929718 1.220421709794292 2.297000000000000
-0.254380165289256 1.227784930087753 2.299000000000000
-0.254601461648794 1.235159112709175 2.301000000000000
-0.254822758008333 1.242544257658556 2.303000000000000
-0.254712109828564 1.248313544504311 2.302000000000000
-0.254712109828564 1.254622364245271 2.302000000000000
-0.254601461648794 1.260383429345056 2.301000000000000
-0.254601461648794 1.266689508504026 2.301000000000000
-0.254601461648794 1.272995587662996 2.301000000000000
-0.254601461648794 1.279301666821966 2.301000000000000
-0.254490813469025 1.285049029011801 2.300000000000000
-0.254380165289256 1.290790910037655 2.299000000000000
-0.254158868929718 1.295963111766415 2.297000000000000
-0.254269517109487 1.302825167312530 2.298000000000000
-0.254490813469025 1.310262383319722 2.300000000000000
-0.254601461648794 1.317138141775787 2.301000000000000
-0.254601461648794 1.323444220934758 2.301000000000000
-0.254269517109487 1.328016596964531 2.298000000000000
-0.254380165289256 1.334895096002587 2.299000000000000
-0.254601461648794 1.342362458411668 2.301000000000000
-0.254822758008333 1.349840783148709 2.303000000000000
-0.254822758008333 1.356152343471660 2.303000000000000
-0.254822758008333 1.362463903794610 2.303000000000000
-0.254822758008333 1.368775464117560 2.303000000000000
-0.255044054367871 1.376281194674501 2.305000000000000
-0.255265350727409 1.383797887559402 2.307000000000000
-0.255597295266717 1.391928109053238 2.310000000000000
-0.255375998907178 1.397048239724188 2.308000000000000
-0.255154702547640 1.402157408067177 2.306000000000000
-0.255265350727409 1.409087978163043 2.307000000000000
-0.255044054367871 1.414183443596082 2.305000000000000
-0.257367666143023 1.433442138092445 2.326000000000000
-0.255929239806024 1.431769604753265 2.313000000000000
-0.254933406188102 1.432512817701967 2.304000000000000
-0.254933406188102 1.438827118606907 2.304000000000000
-0.254269517109487 1.441378030398535 2.298000000000000
-0.255818591626255 1.456495497223790 2.312000000000000
-0.257379960385220 0.312879036192126 2.385000000000000
-0.262667850556656 0.325977735511913 2.434000000000000
-0.263747011816133 0.334014985502321 2.444000000000000
-0.262236186052865 0.338761256940524 2.430000000000000
-0.257811624889010 0.339592782403271 2.389000000000000
-0.257703708763063 0.345995143688714 2.388000000000000
-0.256840379755481 0.351358616115718 2.380000000000000
-0.254897889488423 0.355174536704615 2.362000000000000
-0.254358308858685 0.360882237191890 2.357000000000000
-0.255437470118161 0.368900303108368 2.367000000000000
-0.256948295881429 0.377607548659033 2.381000000000000
-0.258674953896592 0.386714195666592 2.397000000000000
-0.258027457140906 0.392298931721140 2.391000000000000
-0.255545386244109 0.395014947134173 2.368000000000000
-0.252955399221365 0.397435341449110 2.344000000000000
-0.250581244450516 0.400068777645621 2.322000000000000
-0.251228741206202 0.407482621969601 2.328000000000000
-0.254682057236528 0.419551531163158 2.360000000000000
-0.256516631377638 0.429088087786322 2.377000000000000
-0.254897889488423 0.432853592628931 2.362000000000000
-0.255653302370057 0.440628832018767 2.369000000000000
-0.255437470118161 0.446743793952084 2.367000000000000
-0.254034560480841 0.450741524750196 2.354000000000000
-0.251012908954306 0.451754706949568 2.326000000000000
-0.252307902465679 0.460492822415768 2.338000000000000
-0.252631650843522 0.467499405293708 2.341000000000000
-0.252092070213783 0.472902901180095 2.336000000000000
-0.251012908954306 0.477253081784448 2.326000000000000
-0.252307902465679 0.486122745186168 2.338000000000000
-0.254682057236528 0.497164813119714 2.360000000000000
-0.254574141110580 0.503419182977697 2.359000000000000
-0.251768321835940 0.504264466162034 2.333000000000000
-0.247667509049928 0.502340621454372 2.295000000000000
-0.247991257427771 0.509295133274502 2.298000000000000
-0.247883341301824 0.515368624721146 2.297000000000000
-0.250041663820777 0.526205872519088 2.317000000000000
-0.251336657332149 0.535313966553937 2.329000000000000
-0.251768321835940 0.542627132857934 2.333000000000000
-0.249825831568882 0.544785001342885 2.315000000000000
-0.247559592923981 0.546130002247277 2.294000000000000
-0.247667509049928 0.552657706790614 2.295000000000000
-0.248746670309405 0.561382842860510 2.305000000000000
