# This PCD file was generated using the MATLAB® pcwrite function
# from Computer Vision Toolbox®.
# .PCD v.7 - Point Cloud Data file format
VERSION .7
FIELDS x y z
SIZE 8 8 8
TYPE F F F
COUNT 1 1 1
WIDTH 862
HEIGHT 1
VIEWPOINT 0 0 0 1 0 0 0
POINTS 862
DATA ascii
-0.619180383853562 -0.034467565212148 2.051000000000000
-0.615255788539034 -0.028663790882632 2.038000000000000
-0.619180383853562 -0.023225697889204 2.051000000000000
-0.622199303326276 -0.017690599255658 2.061000000000000
-0.622803087220818 -0.012053945615891 2.063000000000000
-0.622199303326276 -0.006393920292913 2.061000000000000
-0.624010655009904 -0.000747751352477 2.067000000000000
-0.624614438904446 0.004921789271170 2.069000000000000
-0.626727682535346 0.010627889258563 2.076000000000000
-0.628539034218974 0.016364497404669 2.082000000000000
-0.631557953691688 0.022176394819204 2.092000000000000
-0.632765521480773 0.027963056954775 2.096000000000000
-0.629746602008060 0.033546499454624 2.086000000000000
-0.625218222798989 0.038981018729137 2.071000000000000
-0.618878491906291 0.044203943149367 2.050000000000000
-0.617670924117205 0.049724922304501 2.046000000000000
-0.618576599959019 0.055413285245255 2.049000000000000
-0.623104979168090 0.061475507418755 2.064000000000000
-0.626425790588075 0.067489846143727 2.075000000000000
-0.630048493955331 0.073599743481526 2.087000000000000
-0.627935250324431 0.079053293357377 2.080000000000000
-0.624614438904446 0.084305487193260 2.069000000000000
-0.624312546957175 0.089932263775535 2.068000000000000
-0.627331466429889 0.096062068700909 2.078000000000000
-0.627331466429889 0.101756998076111 2.078000000000000
-0.623406871115361 0.106779706538480 2.065000000000000
-0.621595519431733 0.112112309049950 2.059000000000000
-0.622803087220818 0.117983929227211 2.063000000000000
-0.626727682535346 0.124416853483006 2.076000000000000
-0.627331466429889 0.130231644952122 2.078000000000000
-0.624614438904446 0.135337864428890 2.069000000000000
-0.617972816064477 0.139508767121786 2.047000000000000
-0.615859572433577 0.144622484830879 2.040000000000000
-0.615255788539034 0.150066004176647 2.038000000000000
-0.616463356328120 0.155956808427838 2.042000000000000
-0.617369032169934 0.161790422214061 2.045000000000000
-0.618576599959019 0.167722335195102 2.049000000000000
-0.619180383853562 0.173506980262328 2.051000000000000
-0.617972816064477 0.178778566456373 2.047000000000000
-0.619180383853562 0.184748847585273 2.051000000000000
-0.619784167748105 0.190555417308420 2.053000000000000
-0.618576599959019 0.195799597682564 2.049000000000000
-0.614652004644492 0.200137160647435 2.036000000000000
-0.611331193224507 0.204605548034180 2.025000000000000
-0.610727409329964 0.209947665846319 2.023000000000000
-0.610123625435421 0.215278821330498 2.021000000000000
-0.609217949593607 0.220489752963939 2.018000000000000
-0.609519841540878 0.226132249524509 2.019000000000000
-0.609519841540878 0.231665484562302 2.019000000000000
-0.608916057646336 0.236963753062600 2.017000000000000
-0.608312273751793 0.242251059234939 2.015000000000000
-0.605595246226351 0.246666652050229 2.006000000000000
-0.604387678437265 0.251661439463284 2.002000000000000
-0.605293354279079 0.257533421397368 2.005000000000000
-0.606802814015436 0.263684219180785 2.010000000000000
-0.604387678437265 0.268121374895173 2.002000000000000
-0.603783894542723 0.273334685353782 2.000000000000000
-0.602274434806366 0.278118809710430 1.995000000000000
-0.602274434806366 0.283586270780463 1.995000000000000
-0.601368758964552 0.288619064584555 1.992000000000000
-0.600764975070009 0.293783044567344 1.990000000000000
-0.601972542859094 0.299838283737935 1.994000000000000
-0.601368758964552 0.304996782556744 1.992000000000000
-0.600161191175466 0.309832616214379 1.988000000000000
-0.598953623386381 0.314646525216095 1.984000000000000
-0.600161191175466 0.320729170206585 1.988000000000000
-0.598651731439109 0.325357081389804 1.983000000000000
-0.596236595860939 0.329457145519422 1.975000000000000
-0.593519568335496 0.333343806010644 1.966000000000000
-0.596538487808210 0.340454739288435 1.976000000000000
-0.597746055597295 0.346570271262805 1.980000000000000
-0.594123352230039 0.349863310732667 1.968000000000000
-0.591708216651868 0.353812642852836 1.960000000000000
-0.589896864968240 0.358084640134179 1.954000000000000
-0.591708216651868 0.364555724253602 1.960000000000000
-0.592613892493682 0.370493480155446 1.963000000000000
-0.593519568335496 0.376447679549229 1.966000000000000
-0.593519568335496 0.381835663741552 1.966000000000000
-0.593519568335496 0.387223647933875 1.966000000000000
-0.591708216651868 0.391413427755518 1.960000000000000
-0.591104432757325 0.396380085835028 1.958000000000000
-0.588689297179154 0.400104690232018 1.950000000000000
-0.590198756915511 0.406488437484584 1.955000000000000
-0.588991189126426 0.411003623049391 1.951000000000000
-0.590802540810054 0.417630920342244 1.957000000000000
-0.590198756915511 0.422561950855884 1.955000000000000
-0.589293081073697 0.427263134239187 1.952000000000000
-0.589594973020969 0.432834375668017 1.953000000000000
-0.590198756915511 0.438635464227183 1.955000000000000
-0.592312000546411 0.445583047856043 1.962000000000000
-0.590500648862783 0.449580986938386 1.956000000000000
-0.590500648862783 0.454941565310809 1.956000000000000
-0.590198756915511 0.460066815388916 1.955000000000000
-0.590500648862783 0.465662722055656 1.956000000000000
-0.589594973020969 0.470300872053189 1.953000000000000
-0.587783621337340 0.474191928437923 1.947000000000000
-0.586576053548255 0.478542679083330 1.943000000000000
-0.586576053548255 0.483867629889883 1.943000000000000
-0.587481729390069 0.489947896055206 1.946000000000000
-0.587481729390069 0.495281068607729 1.946000000000000
-0.586274161600984 0.499585229359307 1.942000000000000
-0.587783621337340 0.506207407245003 1.947000000000000
-0.589293081073697 0.512856990950598 1.952000000000000
-0.588689297179154 0.517675657602648 1.950000000000000
-0.587179837442798 0.521678716092149 1.945000000000000
-0.585670377706441 0.525654368761750 1.940000000000000
-0.584462809917355 0.529876312053628 1.936000000000000
-0.582349566286456 0.533247019617086 1.929000000000000
-0.582349566286456 0.538533602275779 1.929000000000000
-0.584160917970084 0.545511694063351 1.935000000000000
-0.585368485759170 0.551953355294530 1.939000000000000
-0.584764701864627 0.556692545068871 1.937000000000000
-0.583859026022813 0.561130632581135 1.934000000000000
-0.583557134075541 0.566138037633672 1.933000000000000
-0.582953350180999 0.570844340424132 1.931000000000000
-0.581745782391913 0.574942957526460 1.927000000000000
-0.582953350180999 0.581428468069479 1.931000000000000
-0.583557134075541 0.587328217580285 1.933000000000000
-0.583557134075541 0.592625762566939 1.933000000000000
-0.581141998497370 0.595448715489221 1.925000000000000
-0.580840106550099 0.600412271229918 1.924000000000000
-0.579934430708285 0.604740735462583 1.921000000000000
-0.581443890444642 0.611593122235438 1.926000000000000
-0.580538214602828 0.615910624140142 1.923000000000000
-0.580840106550099 0.621503790224892 1.924000000000000
-0.580236322655556 0.626125134973663 1.922000000000000
-0.579934430708285 0.631064025476450 1.921000000000000
-0.580236322655556 0.636659932143190 1.922000000000000
-0.578424970971928 0.639923395252216 1.916000000000000
-0.577821187077386 0.644500890689147 1.914000000000000
-0.577821187077386 0.649746364617990 1.914000000000000
-0.578424970971928 0.655676260530686 1.916000000000000
-0.580236322655556 0.662996925067007 1.922000000000000
-0.576311727341029 0.663744325624990 1.909000000000000
-0.575707943446486 0.668275231168091 1.907000000000000
-0.575406051499215 0.673148347703118 1.906000000000000
-0.577821187077386 0.681219208191051 1.914000000000000
-0.577519295130114 0.686106027636029 1.913000000000000
-0.577519295130114 0.691348760982882 1.913000000000000
-0.576613619288300 0.695499087386197 1.910000000000000
-0.575104159551943 0.698899217837900 1.905000000000000
-0.573896591762858 0.702641559281529 1.901000000000000
-0.574198483710129 0.708223763038319 1.902000000000000
-0.576613619288300 0.716437133789732 1.910000000000000
-0.576311727341029 0.721293806832819 1.909000000000000
-0.575406051499215 0.725383840432354 1.906000000000000
-0.573594699815586 0.728307471374621 1.900000000000000
-0.573292807868315 0.733128516851839 1.899000000000000
-0.572387132026501 0.737166479393564 1.896000000000000
-0.572085240079230 0.741971081378841 1.895000000000000
-0.572085240079230 0.747164484249875 1.895000000000000
-0.572387132026501 0.752754909752635 1.896000000000000
-0.573292807868315 0.759150342846807 1.899000000000000
-0.573594699815586 0.764757211841507 1.900000000000000
-0.574802267604672 0.771585295133275 1.904000000000000
-0.574802267604672 0.776803363242218 1.904000000000000
-0.575104159551943 0.782432156892838 1.905000000000000
-0.572085240079230 0.783518304347111 1.895000000000000
-0.569971996448330 0.785798260278553 1.888000000000000
-0.569066320606516 0.789715637212718 1.885000000000000
-0.570273888395601 0.796568385742396 1.889000000000000
-0.570273888395601 0.801745345121490 1.889000000000000
-0.569971996448330 0.806495135466968 1.888000000000000
-0.569066320606516 0.810379625417254 1.885000000000000
-0.568764428659245 0.815112972270791 1.884000000000000
-0.568764428659245 0.820276228739935 1.884000000000000
-0.569368212553787 0.826315747932231 1.886000000000000
-0.569368212553787 0.831484485565355 1.886000000000000
-0.569368212553787 0.836653223198478 1.886000000000000
-0.569670104501059 0.842268313939148 1.887000000000000
-0.569066320606516 0.846541604775190 1.885000000000000
-0.567858752817431 0.849900264740220 1.881000000000000
-0.567556860870159 0.854600724609878 1.880000000000000
-0.568462536711973 0.861124965057580 1.883000000000000
-0.567556860870159 0.864905312892246 1.880000000000000
-0.567254968922888 0.869594810433944 1.879000000000000
-0.565745509186531 0.872416678085758 1.874000000000000
-0.567254968922888 0.879893917552331 1.879000000000000
-0.567254968922888 0.885043471111525 1.879000000000000
-0.566953076975616 0.889719265743273 1.878000000000000
-0.566047401133802 0.893436580192170 1.875000000000000
-0.564537941397446 0.896178970966274 1.870000000000000
-0.565443617239260 0.902749801307806 1.873000000000000
-0.564537941397446 0.906428747608842 1.870000000000000
-0.563934157502903 0.910578712255334 1.868000000000000
-0.563028481661089 0.914227512154481 1.865000000000000
-0.562726589713817 0.918845754564439 1.864000000000000
-0.563632265555631 0.925441250143880 1.867000000000000
-0.563632265555631 0.930557916719194 1.867000000000000
-0.563028481661089 0.934672253799817 1.865000000000000
-0.561820913872003 0.937767817893808 1.861000000000000
-0.561820913872003 0.942868040977182 1.861000000000000
-0.562122805819275 0.948477650553872 1.862000000000000
-0.562122805819275 0.953580614219236 1.862000000000000
-0.561519021924732 0.957653842570008 1.860000000000000
-0.559103886346561 0.958610459157107 1.852000000000000
-0.560311454135647 0.975940452634521 1.856000000000000
-0.561820913872003 0.983669825644174 1.861000000000000
-0.561820913872003 0.988770048727548 1.861000000000000
-0.560311454135647 0.991200013154793 1.856000000000000
-0.558801994399290 0.993602571762139 1.851000000000000
-0.560915238030189 1.017728123304265 1.858000000000000
-0.562726589713817 1.026123095980662 1.864000000000000
-0.562424697766546 1.030678305004851 1.863000000000000
-0.560915238030189 1.033004127316477 1.858000000000000
-0.559405778293832 1.035302543808203 1.853000000000000
-0.559103886346561 1.039819384684532 1.852000000000000
-0.560311454135647 1.047151735062458 1.856000000000000
-0.560915238030189 1.053372132666093 1.858000000000000
-0.560915238030189 1.058464134003497 1.858000000000000
-0.560311454135647 1.062411295582730 1.856000000000000
-0.560311454135647 1.067497815756154 1.856000000000000
-0.560915238030189 1.073740138015709 1.858000000000000
-0.560915238030189 1.078832139353113 1.858000000000000
-0.561217129977461 1.084507522897562 1.859000000000000
-0.560915238030189 1.089016142027921 1.858000000000000
-0.560613346082918 1.093519279994299 1.857000000000000
-0.560311454135647 1.098016936796698 1.856000000000000
-0.559405778293832 1.101320423365106 1.853000000000000
-0.559103886346561 1.105801636675564 1.852000000000000
-0.560311454135647 1.113276497316970 1.856000000000000
-0.561519021924732 1.120773282614296 1.860000000000000
-0.561217129977461 1.125265458252714 1.859000000000000
-0.560613346082918 1.129144105282198 1.857000000000000
-0.559103886346561 1.131179425902885 1.852000000000000
-0.559707670241104 1.137482040966219 1.854000000000000
-0.559707670241104 1.142563079975664 1.854000000000000
-0.561217129977461 1.150739167849684 1.859000000000000
-0.561217129977461 1.155833909769078 1.859000000000000
-0.562122805819275 1.162802124499158 1.862000000000000
-0.561820913872003 1.167277856645637 1.861000000000000
-0.561519021924732 1.171748107628136 1.860000000000000
-0.561217129977461 1.176212877446654 1.859000000000000
-0.562424697766546 1.183849432425470 1.863000000000000
-0.563028481661089 1.190231524366514 1.865000000000000
-0.560613346082918 1.190215234347166 1.857000000000000
-0.559103886346561 1.192086120048454 1.852000000000000
-0.559707670241104 1.198454509079548 1.854000000000000
-0.562122805819275 1.208728797487434 1.862000000000000
-0.564537941397446 1.219046935207161 1.870000000000000
-0.565141725291988 1.225481098206015 1.872000000000000
-0.564839833344717 1.229954089770503 1.871000000000000
-0.563028481661089 1.231121007657186 1.865000000000000
-0.564839833344717 1.240209347577051 1.871000000000000
-0.564839833344717 1.245336976480325 1.871000000000000
-0.565745509186531 1.252469626129805 1.874000000000000
-0.566349293081074 1.258947638440499 1.876000000000000
-0.572085240079230 1.276891577095312 1.895000000000000
-0.573292807868315 1.284791227945166 1.899000000000000
-0.575707943446486 1.295430013757721 1.907000000000000
-0.576613619288300 1.302702433088691 1.910000000000000
-0.579028754866471 1.313415214614976 1.918000000000000
-0.579028754866471 1.318671650871779 1.918000000000000
-0.580840106550099 1.328069676556513 1.924000000000000
-0.579330646813742 1.329877528872031 1.919000000000000
-0.657852605696332 -0.856564154283804 2.199000000000000
-0.660545044737381 -0.854018668844516 2.208000000000000
-0.664134963458780 -0.852575982635673 2.220000000000000
-0.669220681647429 -0.852974035726227 2.237000000000000
-0.674306399836077 -0.853278909029121 2.254000000000000
-0.674904719622977 -0.847853280202584 2.256000000000000
-0.676400519090226 -0.843535931770471 2.261000000000000
-0.677597158664026 -0.838820837192986 2.265000000000000
-0.679092958131275 -0.834451417703063 2.270000000000000
-0.680887917491975 -0.830419451554732 2.276000000000000
-0.682383716959224 -0.825992479843019 2.281000000000000
-0.684776996106823 -0.822616236303942 2.289000000000000
-0.684477836213374 -0.815986406713330 2.288000000000000
-0.691657673656171 -0.818209479124987 2.312000000000000
-0.680887917491975 -0.780518934680969 2.276000000000000
-0.684477836213374 -0.778363697154728 2.288000000000000
-0.681785397172324 -0.769056165487303 2.279000000000000
-0.679691277918175 -0.760467389814901 2.272000000000000
-0.679990437811625 -0.754572759711252 2.273000000000000
-0.677597158664026 -0.745709564083029 2.265000000000000
-0.680289597705075 -0.742440564998383 2.274000000000000
-0.684178676319924 -0.740417237164484 2.287000000000000
-0.687768595041322 -0.738001644349194 2.299000000000000
-0.686272795574073 -0.730109700015895 2.294000000000000
-0.686272795574073 -0.723822804930855 2.294000000000000
-0.690760193975821 -0.722227731401040 2.309000000000000
-0.697042551738269 -0.722410725541676 2.330000000000000
-0.699136670992419 -0.718176318082908 2.337000000000000
-0.695247592377570 -0.707812215322046 2.324000000000000
-0.693452633016870 -0.699632148122975 2.318000000000000
-0.701529950140018 -0.701354779300932 2.345000000000000
-0.695546752271020 -0.689001222299568 2.325000000000000
-0.678195478450925 -0.665600335447236 2.267000000000000
-0.684477836213374 -0.665495568478922 2.288000000000000
-0.670716481114678 -0.645971465060320 2.242000000000000
-0.666528242606379 -0.635831728265815 2.228000000000000
-0.660844204630831 -0.624355519258070 2.209000000000000
-0.659647565057032 -0.617181969162971 2.205000000000000
-0.660844204630831 -0.612247628026288 2.209000000000000
-0.659647565057032 -0.605096002587109 2.205000000000000
-0.661741684311181 -0.600954774916001 2.212000000000000
-0.659647565057032 -0.593010036011247 2.205000000000000
-0.659348405163582 -0.586700854513465 2.204000000000000
-0.655160166655283 -0.576972205017457 2.190000000000000
-0.656955126015983 -0.572534632734608 2.196000000000000
-0.656955126015983 -0.566516314684587 2.196000000000000
-0.656955126015983 -0.560497996634565 2.196000000000000
-0.655459326548733 -0.553217202085035 2.191000000000000
-0.654262686974933 -0.546213568073316 2.187000000000000
-0.654262686974933 -0.540219915261205 2.187000000000000
-0.654561846868383 -0.534470536003026 2.188000000000000
-0.656057646335633 -0.529681807468634 2.193000000000000
-0.655160166655283 -0.522955333994727 2.190000000000000
-0.655160166655283 -0.516953459436646 2.190000000000000
-0.654861006761833 -0.510718273652593 2.189000000000000
-0.652766887507684 -0.503105145168628 2.182000000000000
-0.653066047401134 -0.497353025328459 2.183000000000000
-0.652467727614234 -0.490920155884304 2.181000000000000
-0.653664367188034 -0.485832342156180 2.185000000000000
-0.651570247933884 -0.478306912295895 2.178000000000000
-0.653963527081484 -0.474072866593950 2.186000000000000
-0.653066047401134 -0.467439572907703 2.183000000000000
-0.657254285909432 -0.464416294404280 2.197000000000000
-0.653963527081484 -0.456100129903586 2.186000000000000
-0.648279489105935 -0.446197014958097 2.167000000000000
-0.652168567720784 -0.442899316498852 2.180000000000000
-0.659647565057032 -0.441935453812972 2.205000000000000
-0.658750085376682 -0.435299419544735 2.202000000000000
-0.652168567720784 -0.424975910284308 2.180000000000000
-0.647681169319036 -0.416118404104296 2.165000000000000
-0.644390410491087 -0.408100963040511 2.154000000000000
-0.646783689638686 -0.403691520091207 2.162000000000000
-0.651869407827334 -0.400894054581431 2.179000000000000
-0.654561846868383 -0.396553487938699 2.188000000000000
-0.646185369851786 -0.385559106131778 2.160000000000000
-0.643193770917287 -0.377881858991575 2.150000000000000
-0.643193770917287 -0.371989607713094 2.150000000000000
-0.639903012089338 -0.364224300192389 2.139000000000000
-0.650373608360085 -0.364225999353223 2.174000000000000
-0.653963527081484 -0.360245534221647 2.186000000000000
-0.644390410491087 -0.349068826976097 2.154000000000000
-0.649775288573185 -0.346033292590014 2.172000000000000
-0.641099651663138 -0.329667008325888 2.143000000000000
-0.668921521753979 -0.319461837395789 2.236000000000000
-0.667724882180179 -0.312773370312920 2.232000000000000
-0.662938323884981 -0.304458137610103 2.216000000000000
-0.635714773581040 -0.286131832956047 2.125000000000000
-0.636911413154839 -0.275001035939992 2.129000000000000
-0.639005532408989 -0.270051336581837 2.136000000000000
-0.640501331876238 -0.264815893183076 2.141000000000000
-0.642595451130387 -0.259794938693181 2.148000000000000
-0.635714773581040 -0.251189412583656 2.125000000000000
-0.630629055392391 -0.243402750448085 2.108000000000000
-0.628534936138242 -0.236836524284297 2.101000000000000
-0.630928215285841 -0.231958441814704 2.109000000000000
-0.635415613687590 -0.227787221214297 2.124000000000000
-0.638706372515539 -0.223115767664421 2.135000000000000
-0.636013933474489 -0.216348755501718 2.126000000000000
-0.631825694966191 -0.209135960272523 2.112000000000000
-0.630329895498941 -0.197092034224388 2.107000000000000
-0.630030735605491 -0.191226827008984 2.106000000000000
-0.626440816884093 -0.184398436772033 2.094000000000000
-0.622551738269244 -0.177550500704330 2.081000000000000
-0.622252578375794 -0.171764770366635 2.080000000000000
-0.624645857523393 -0.166703068903712 2.088000000000000
-0.624047537736493 -0.160826537603525 2.086000000000000
-0.623150058056144 -0.154886611160746 2.083000000000000
-0.622850898162694 -0.149106361987032 2.082000000000000
-0.625244177310293 -0.143951480736449 2.090000000000000
-0.623150058056144 -0.137760714305290 2.083000000000000
-0.621953418482344 -0.131798501449768 2.079000000000000
-0.623748377843044 -0.126464758856191 2.085000000000000
-0.622551738269244 -0.120518989492609 2.081000000000000
-0.624047537736493 -0.115091705354549 2.086000000000000
-0.618961819547845 -0.108483493474674 2.069000000000000
-0.616568540400246 -0.102415691476242 2.061000000000000
-0.618363499760945 -0.097049061898785 2.067000000000000
-0.620158459121645 -0.091649545337448 2.073000000000000
-0.620756778908545 -0.086051259845541 2.075000000000000
-0.619859299228195 -0.080248362502261 2.072000000000000
-0.621055938801995 -0.074713833909769 2.076000000000000
-0.619560139334745 -0.068858141995034 2.071000000000000
-0.617765179974046 -0.062999347741486 2.065000000000000
-0.616568540400246 -0.057228975625264 2.061000000000000
-0.618662659654395 -0.051755825107020 2.068000000000000
-0.618064339867495 -0.046043728726232 2.066000000000000
-0.618064339867495 -0.040381686334910 2.066000000000000
-0.613576941465747 -0.034467565212148 2.051000000000000
-0.613277781572297 -0.028832566883903 2.050000000000000
-0.613277781572297 -0.023214373804421 2.050000000000000
-0.617765179974046 -0.017724933266829 2.065000000000000
-0.616269380506796 -0.012036416853483 2.060000000000000
-0.613277781572297 -0.006359794565974 2.050000000000000
-0.610884502424698 -0.000738707431910 2.042000000000000
-0.611482822211598 0.004862318641987 2.044000000000000
-0.613876101359197 0.010505023486788 2.052000000000000
-0.617166860187146 0.016215157610870 2.063000000000000
-0.618363499760945 0.021911380540772 2.067000000000000
-0.620457619015095 0.027669551585975 2.074000000000000
-0.619560139334745 0.033305273427865 2.071000000000000
-0.619560139334745 0.038981018729137 2.071000000000000
-0.613576941465747 0.044225506048464 2.051000000000000
-0.608192063383649 0.049408977050366 2.033000000000000
-0.608790383170549 0.055034668362173 2.035000000000000
-0.612978621678847 0.061028737742747 2.049000000000000
-0.615671060719896 0.066936917283754 2.058000000000000
-0.615371900826446 0.072541769210109 2.057000000000000
-0.614773581039546 0.078103133581447 2.055000000000000
-0.612380301891947 0.083409053786662 2.047000000000000
-0.611482822211598 0.088888562455123 2.044000000000000
-0.612978621678847 0.094721452727701 2.049000000000000
-0.614474421146097 0.100581748820179 2.054000000000000
-0.614474421146097 0.106210904227622 2.054000000000000
-0.613277781572297 0.111622260103155 2.050000000000000
-0.613277781572297 0.117240453182638 2.050000000000000
-0.615072740932996 0.123218232543863 2.056000000000000
-0.616867700293696 0.129228898888968 2.062000000000000
-0.615371900826446 0.134552917897645 2.057000000000000
-0.612380301891947 0.139508767121786 2.047000000000000
-0.609388702957448 0.144409804706127 2.037000000000000
-0.607294583703299 0.149476932521390 2.030000000000000
-0.607593743596749 0.155116688499970 2.031000000000000
-0.609388702957448 0.161157501246965 2.037000000000000
-0.612081141998498 0.167476768086471 2.046000000000000
-0.613576941465747 0.173506980262328 2.051000000000000
-0.611183662318148 0.178429218988944 2.043000000000000
-0.610884502424698 0.183938150545650 2.042000000000000
-0.610286182637798 0.189348782907538 2.040000000000000
-0.611482822211598 0.195321804618429 2.044000000000000
-0.609987022744348 0.200432058231886 2.039000000000000
-0.608790383170549 0.205615945802251 2.035000000000000
-0.606995423809849 0.210570347999101 2.029000000000000
-0.606097944129499 0.215811426034433 2.026000000000000
-0.604003824875350 0.220599014486716 2.019000000000000
-0.602508025408101 0.225572239000674 2.014000000000000
-0.602208865514651 0.230977028441760 2.013000000000000
-0.603704664981900 0.237081236331347 2.018000000000000
-0.602508025408101 0.242130835384202 2.014000000000000
-0.598618946793252 0.246051829886595 2.001000000000000
-0.597123147326002 0.250907209374983 1.996000000000000
-0.598918106686702 0.257148084607247 2.002000000000000
-0.600713066047401 0.263421846823391 2.008000000000000
-0.598618946793252 0.267987448134486 2.001000000000000
-0.596823987432552 0.272651348640397 1.995000000000000
-0.596225667645653 0.277839993861096 1.993000000000000
-0.596823987432552 0.283586270780463 1.995000000000000
-0.596524827539103 0.288908842761849 1.994000000000000
-0.597123147326002 0.294668822591165 1.996000000000000
-0.598020627006352 0.300590135001069 1.999000000000000
-0.597422307219452 0.305762336729828 1.997000000000000
-0.595029028071853 0.309988467630986 1.989000000000000
-0.593832388498054 0.314805117214692 1.985000000000000
-0.594430708284953 0.320567837625998 1.987000000000000
-0.593533228604604 0.325521154552381 1.984000000000000
-0.592037429137354 0.330124400497690 1.979000000000000
-0.591139949457004 0.335039349276212 1.976000000000000
-0.592336589030804 0.341143918922622 1.980000000000000
-0.592635748924254 0.346745306753342 1.981000000000000
-0.590242469776655 0.350752191095301 1.973000000000000
-0.589045830202855 0.355437292743487 1.969000000000000
-0.586951710948706 0.359550698026233 1.962000000000000
-0.586353391161806 0.364555724253602 1.960000000000000
-0.586054231268356 0.369738526553499 1.959000000000000
-0.587550030735606 0.376064721584276 1.964000000000000
-0.589045830202855 0.382418322434952 1.969000000000000
-0.589344990096305 0.388011488519702 1.970000000000000
-0.586652551055256 0.391613128483965 1.961000000000000
-0.586652551055256 0.396987409766338 1.961000000000000
-0.584857591694556 0.401130599694151 1.955000000000000
-0.586652551055256 0.407735972331084 1.961000000000000
-0.584857591694556 0.411846275275017 1.955000000000000
-0.585455911481456 0.417630920342244 1.957000000000000
-0.584259271907657 0.422129662415110 1.953000000000000
-0.583062632333857 0.426606479832057 1.949000000000000
-0.583062632333857 0.431947874130550 1.949000000000000
-0.583960112014207 0.437962366328113 1.952000000000000
-0.585455911481456 0.444447515114310 1.957000000000000
-0.583960112014207 0.448661598417040 1.952000000000000
-0.584558431801106 0.454476389886156 1.954000000000000
-0.583361792227307 0.458890173917333 1.950000000000000
-0.581865992760057 0.463043964416283 1.945000000000000
-0.582464312546957 0.468856015303410 1.947000000000000
-0.581566832866607 0.473461278317063 1.944000000000000
-0.580669353186258 0.478050097838777 1.941000000000000
-0.580370193292808 0.483120536277084 1.940000000000000
-0.582165152653507 0.489947896055206 1.946000000000000
-0.581865992760057 0.495026556239483 1.945000000000000
-0.581267672973158 0.499842482309543 1.943000000000000
-0.582165152653507 0.505947413712776 1.946000000000000
-0.584558431801106 0.513382459179031 1.954000000000000
-0.583960112014207 0.518206606995061 1.952000000000000
-0.580370193292808 0.520337639701167 1.940000000000000
-0.578575233932109 0.524028633600631 1.934000000000000
-0.578575233932109 0.529328919169275 1.934000000000000
-0.577976914145209 0.534076330689585 1.932000000000000
-0.578276074038659 0.539650312700405 1.933000000000000
-0.578575233932109 0.545229775875205 1.934000000000000
-0.579771873505908 0.551668696524394 1.938000000000000
-0.579472713612458 0.556692545068871 1.937000000000000
-0.578575233932109 0.561130632581135 1.934000000000000
-0.577079434464859 0.564966515569246 1.929000000000000
-0.575583634997609 0.568774992737458 1.924000000000000
-0.575583634997609 0.574047872486201 1.924000000000000
-0.575583634997609 0.579320752234945 1.924000000000000
-0.576181954784509 0.585201317671821 1.926000000000000
-0.576181954784509 0.590479678584544 1.926000000000000
-0.576481114677959 0.596067363505314 1.927000000000000
-0.576481114677959 0.601348465000027 1.927000000000000
-0.576780274571409 0.606944371666767 1.928000000000000
-0.576780274571409 0.612228213743470 1.928000000000000
-0.575583634997609 0.616230910476149 1.924000000000000
-0.574386995423810 0.620211682552907 1.920000000000000
-0.574087835530360 0.625147832473704 1.919000000000000
-0.575284475104160 0.631721041640403 1.923000000000000
-0.576181954784509 0.637984926799055 1.926000000000000
-0.574386995423810 0.641259352236041 1.920000000000000
-0.571993716276211 0.643827431033254 1.912000000000000
-0.572292876169661 0.649406894208054 1.913000000000000
-0.572592036063111 0.654991838546834 1.914000000000000
-0.572292876169661 0.659892360901761 1.913000000000000
-0.569899597022061 0.662353557001365 1.905000000000000
-0.569002117341712 0.666523067478610 1.902000000000000
-0.569002117341712 0.671735654423573 1.902000000000000
-0.570497916808961 0.678727810877918 1.907000000000000
-0.571395396489311 0.685030064184430 1.910000000000000
-0.572891195956560 0.692071551114595 1.915000000000000
-0.572292876169661 0.696591494329736 1.913000000000000
-0.571395396489311 0.700733598987081 1.910000000000000
-0.569899597022061 0.704120026528834 1.905000000000000
-0.569600437128612 0.708968477825951 1.904000000000000
-0.569301277235162 0.713811447959089 1.903000000000000
-0.569002117341712 0.718648936928246 1.902000000000000
-0.569002117341712 0.723861523873210 1.902000000000000
-0.569002117341712 0.729074110818173 1.902000000000000
-0.569002117341712 0.734286697763137 1.902000000000000
-0.569301277235162 0.739888085593857 1.903000000000000
-0.568702957448262 0.744320330185318 1.901000000000000
-0.567805477767912 0.748347330399084 1.898000000000000
-0.567506317874462 0.753151932384361 1.897000000000000
-0.568104637661362 0.759150342846807 1.899000000000000
-0.567506317874462 0.763549700454388 1.897000000000000
-0.566608838194112 0.767532851356314 1.894000000000000
-0.565711358513763 0.771499558766300 1.891000000000000
-0.566608838194112 0.777914175934401 1.894000000000000
-0.566010518407213 0.782277905976113 1.892000000000000
-0.564514718939963 0.785382053572897 1.887000000000000
-0.565113038726863 0.791391426363303 1.889000000000000
-0.566010518407213 0.797833449351304 1.892000000000000
-0.565412198620313 0.802169773573116 1.890000000000000
-0.565711358513763 0.807776642567816 1.891000000000000
-0.563916399153063 0.810379625417254 1.885000000000000
-0.563617239259613 0.815112972270791 1.884000000000000
-0.562420599685814 0.818534665621591 1.880000000000000
-0.563018919472714 0.824563222485927 1.882000000000000
-0.563318079366164 0.830161869734657 1.883000000000000
-0.564215559046513 0.836653223198478 1.886000000000000
-0.565113038726863 0.843161020154240 1.889000000000000
-0.564813878833413 0.847888885843798 1.888000000000000
-0.564215559046513 0.852159436097850 1.886000000000000
-0.563318079366164 0.855964449170426 1.883000000000000
-0.563018919472714 0.860667649622074 1.882000000000000
-0.561223960112014 0.863065088822262 1.876000000000000
-0.561223960112014 0.868206420635486 1.876000000000000
-0.562420599685814 0.875209901174614 1.880000000000000
-0.563617239259613 0.882235306369661 1.884000000000000
-0.562719759579264 0.885985507802437 1.881000000000000
-0.560625640325114 0.887824230033490 1.874000000000000
-0.560625640325114 0.892960080682734 1.874000000000000
-0.560027320538215 0.897137451149126 1.872000000000000
-0.560924800218564 0.903713762654637 1.875000000000000
-0.559429000751315 0.906428747608842 1.870000000000000
-0.558232361177515 0.909603788580543 1.866000000000000
-0.557634041390615 0.913737309735095 1.864000000000000
-0.558531521070965 0.920324583568567 1.867000000000000
-0.559129840857865 0.926432617310612 1.869000000000000
-0.559129840857865 0.931554765049906 1.869000000000000
-0.558232361177515 0.935173418547163 1.866000000000000
-0.556736561710266 0.937767817893808 1.861000000000000
-0.555539922136466 0.940841457331879 1.857000000000000
-0.556138241923366 0.946949491073924 1.859000000000000
-0.557334881497166 0.954092741294541 1.863000000000000
-0.557634041390615 0.959713313199191 1.864000000000000
-0.555539922136466 0.961198500353535 1.857000000000000
-0.555240762243016 0.965767412287673 1.856000000000000
-0.555539922136466 0.971377021864363 1.857000000000000
-0.556138241923366 0.977517942590288 1.859000000000000
-0.556138241923366 0.982612684509682 1.859000000000000
-0.554642442456116 0.985050870682898 1.854000000000000
-0.554642442456116 0.990131909692342 1.854000000000000
-0.554044122669217 0.994139364075355 1.852000000000000
-0.554343282562667 1.014989350098387 1.853000000000000
-0.555839082029916 1.022820124641669 1.858000000000000
-0.556138241923366 1.028465361784228 1.859000000000000
-0.555839082029916 1.033004127316477 1.858000000000000
-0.554343282562667 1.035302543808203 1.853000000000000
-0.554941602349566 1.041503757337908 1.855000000000000
-0.556138241923366 1.048844329461804 1.859000000000000
-0.558232361177515 1.057907642386937 1.866000000000000
-0.559129840857865 1.064730606271548 1.869000000000000
-0.557334881497166 1.066418234736328 1.863000000000000
-0.555839082029916 1.068648136678305 1.858000000000000
-0.556138241923366 1.074318039058774 1.859000000000000
-0.557035721603716 1.081154705853335 1.862000000000000
-0.557634041390615 1.087424433932790 1.864000000000000
-0.557035721603716 1.091360633184063 1.862000000000000
-0.556736561710266 1.095874733478401 1.861000000000000
-0.556736561710266 1.100974956561775 1.861000000000000
-0.556138241923366 1.104886490575138 1.859000000000000
-0.556138241923366 1.109981232494532 1.859000000000000
-0.556138241923366 1.115075974413926 1.859000000000000
-0.557933201284065 1.123786114019173 1.865000000000000
-0.557634041390615 1.128291992567541 1.864000000000000
-0.557035721603716 1.132184342506975 1.862000000000000
-0.556138241923366 1.135454942091502 1.859000000000000
-0.555539922136466 1.139322626793026 1.857000000000000
-0.556138241923366 1.145644425930290 1.859000000000000
-0.556138241923366 1.150739167849684 1.859000000000000
-0.556437401816816 1.156455660123984 1.860000000000000
-0.556138241923366 1.160928651688472 1.859000000000000
-0.556437401816816 1.166650625126752 1.860000000000000
-0.557035721603716 1.173008051829887 1.862000000000000
-0.557634041390615 1.179376440860981 1.864000000000000
-0.558232361177515 1.185755792220036 1.866000000000000
-0.558531521070965 1.191507912060205 1.867000000000000
-0.556437401816816 1.192138037633672 1.860000000000000
-0.555839082029916 1.195948170113405 1.858000000000000
-0.556736561710266 1.202979418229255 1.861000000000000
-0.559129840857865 1.213272890711071 1.869000000000000
-0.560625640325114 1.221654522234342 1.874000000000000
-0.560326480431665 1.226135735544800 1.873000000000000
-0.558531521070965 1.227324578087402 1.867000000000000
-0.557933201284065 1.231121007657186 1.865000000000000
-0.560326480431665 1.241535065746562 1.873000000000000
-0.562719759579264 1.251992973147777 1.881000000000000
-0.564514718939963 1.261158049363363 1.887000000000000
-0.569002117341712 1.276395740039355 1.902000000000000
-0.574686155317260 1.294410933825907 1.921000000000000
-0.577378594358309 1.305764649781027 1.930000000000000
-0.578874393825558 1.314450485905187 1.935000000000000
-0.579173553719008 1.320435555214505 1.936000000000000
-0.579472713612458 1.326426105687804 1.937000000000000
-0.575882794891059 1.323484321130435 1.925000000000000
-0.580669353186258 1.339804179935651 1.941000000000000
-0.656884092616625 -0.863186069073628 2.216000000000000
-0.655698381258111 -0.855565804114162 2.212000000000000
-0.658959087494024 -0.853728112341937 2.223000000000000
-0.664294788607336 -0.854499246339953 2.241000000000000
-0.668741206201762 -0.854036033172004 2.256000000000000
-0.669037634041391 -0.848229101692035 2.257000000000000
-0.669037634041391 -0.842043608140625 2.257000000000000
-0.670223345399904 -0.837339475891100 2.261000000000000
-0.672891195956560 -0.834451417703063 2.270000000000000
-0.674966190833959 -0.830784310716224 2.277000000000000
-0.675262618673588 -0.824906124104515 2.278000000000000
-0.676448330032102 -0.820100590321361 2.282000000000000
-0.675855474352845 -0.813133307389157 2.280000000000000
-0.679709036268015 -0.811485439287887 2.293000000000000
-0.681191175466157 -0.806957066042545 2.298000000000000
-0.690973294173895 -0.799380332487407 2.331000000000000
-0.685044737381326 -0.786188157397105 2.311000000000000
-0.677337613550987 -0.771080885536853 2.285000000000000
-0.674076907315074 -0.761136815334104 2.274000000000000
-0.674669762994331 -0.755568676244087 2.276000000000000
-0.675262618673588 -0.749989574826110 2.278000000000000
-0.676744757871730 -0.745378984121068 2.283000000000000
-0.680894747626528 -0.743654741480901 2.297000000000000
-0.683859026022813 -0.740569723146407 2.307000000000000
-0.689194727136125 -0.739976047313407 2.325000000000000
-0.688305443617239 -0.732657608129662 2.322000000000000
-0.692159005532409 -0.730360222096764 2.335000000000000
-0.697791134485349 -0.729851866062277 2.354000000000000
-0.696901850966464 -0.722478615238732 2.351000000000000
-0.692455433372037 -0.711467011614586 2.336000000000000
-0.695123283928693 -0.707781444067462 2.345000000000000
-0.696308995287207 -0.702551120075859 2.349000000000000
-0.694530428249437 -0.694335425310919 2.343000000000000
-0.689787582815382 -0.683216577232341 2.327000000000000
-0.685341165220955 -0.672476291225205 2.312000000000000
-0.688009015777611 -0.668733171456291 2.321000000000000
-0.682673314664299 -0.657235399549448 2.303000000000000
-0.671705484598047 -0.640466096260202 2.266000000000000
-0.665184072126221 -0.628098112835242 2.244000000000000
-0.657180520456253 -0.614464912328782 2.217000000000000
-0.654512669899597 -0.605919262454575 2.208000000000000
-0.653919814220340 -0.599324698673010 2.206000000000000
-0.656291236937368 -0.595430485137824 2.214000000000000
-0.654216242059969 -0.587499449143020 2.207000000000000
-0.650066252305170 -0.577762577901043 2.193000000000000
-0.651251963663684 -0.572795349780479 2.197000000000000
-0.651844819342941 -0.567290244076232 2.199000000000000
-0.650955535824056 -0.560497996634565 2.196000000000000
-0.649473396625914 -0.553217202085035 2.191000000000000
-0.647398401748515 -0.545464303919580 2.184000000000000
-0.647101973908886 -0.539231858717517 2.183000000000000
-0.646509118229629 -0.532760621125502 2.181000000000000
-0.648287685267400 -0.528232609636982 2.187000000000000
-0.647694829588143 -0.521761372044968 2.185000000000000
-0.647991257427771 -0.516009252204798 2.186000000000000
-0.650659107984427 -0.512118141008424 2.195000000000000
-0.649769824465542 -0.505410851608448 2.192000000000000
-0.648880540946657 -0.498720005700411 2.189000000000000
-0.646805546069258 -0.491145245364306 2.182000000000000
-0.648880540946657 -0.486721737748228 2.189000000000000
-0.645916262550372 -0.478526520611917 2.179000000000000
-0.644137695512602 -0.471253586051534 2.173000000000000
-0.648287685267400 -0.468296081515871 2.187000000000000
-0.650955535824056 -0.464204907834228 2.196000000000000
-0.650066252305170 -0.457560651820020 2.193000000000000
-0.645916262550372 -0.448667879830961 2.179000000000000
-0.647991257427771 -0.444118305443344 2.186000000000000
-0.652437675022198 -0.441133756844604 2.201000000000000
-0.649473396625914 -0.433124899283612 2.191000000000000
-0.643248411993716 -0.423026479503187 2.170000000000000
-0.639691277918175 -0.414772986631441 2.158000000000000
-0.636134143842634 -0.406585267727455 2.146000000000000
-0.641173417116317 -0.403878241423349 2.163000000000000
-0.642062700635203 -0.398502304829454 2.166000000000000
-0.642951984154088 -0.393109924743619 2.169000000000000
-0.634355576804863 -0.381989114408336 2.140000000000000
-0.628723447851923 -0.372784847870294 2.121000000000000
-0.638801994399290 -0.372854699824055 2.155000000000000
-0.636726999521891 -0.365756800754208 2.148000000000000
-0.636134143842634 -0.353653667172761 2.146000000000000
-0.629019875691551 -0.343883031960667 2.122000000000000
-0.633169865446349 -0.340297934149296 2.136000000000000
-0.637023427361519 -0.336479525111953 2.149000000000000
-0.633466293285978 -0.328744002236315 2.137000000000000
-0.627834164333037 -0.320016596964531 2.118000000000000
-0.649769824465542 -0.319182824224552 2.192000000000000
-0.647398401748515 -0.312032492340073 2.184000000000000
-0.641766272795574 -0.303384563946000 2.165000000000000
-0.640876989276689 -0.297039031368701 2.162000000000000
-0.632577009767092 -0.287343685425037 2.134000000000000
-0.630502014889693 -0.280571915611999 2.127000000000000
-0.630798442729322 -0.274871866829640 2.128000000000000
-0.629909159210436 -0.268660622769851 2.125000000000000
-0.632280581927464 -0.263826389612098 2.133000000000000
-0.634355576804863 -0.258827359778122 2.140000000000000
-0.631984154087836 -0.252016860060402 2.132000000000000
-0.624869885936753 -0.243402750448085 2.108000000000000
-0.619830612663069 -0.235709268100174 2.091000000000000
-0.623091318898982 -0.231188546559747 2.102000000000000
-0.628723447851923 -0.227465487851000 2.121000000000000
-0.632873437606721 -0.223115767664421 2.135000000000000
-0.627537736493409 -0.215432885887647 2.117000000000000
-0.623091318898982 -0.208145733187900 2.102000000000000
-0.620423468342326 -0.201518490706686 2.093000000000000
-0.621609179700840 -0.196156618779564 2.097000000000000
-0.625462741616010 -0.191590030858953 2.110000000000000
-0.621312751861212 -0.184574557533038 2.096000000000000
-0.617162762106414 -0.177635820502842 2.082000000000000
-0.615384195068643 -0.171434453500545 2.076000000000000
-0.618348473464927 -0.166543391634648 2.086000000000000
-0.617459189946042 -0.160595243445898 2.083000000000000
-0.618052045625299 -0.155035326101851 2.085000000000000
-0.617162762106414 -0.149106361987032 2.082000000000000
-0.618941329144184 -0.143813728123304 2.088000000000000
-0.619830612663069 -0.138289800101950 2.091000000000000
-0.615977050747900 -0.131735106307175 2.078000000000000
-0.613605628030872 -0.125554940447153 2.070000000000000
-0.622202035380097 -0.121561441107634 2.099000000000000
-0.620127040502698 -0.115422745734284 2.092000000000000
-0.615384195068643 -0.108850523177102 2.076000000000000
-0.611530633153473 -0.102515075941527 2.063000000000000
-0.611827060993102 -0.096908206946827 2.064000000000000
-0.614791339389386 -0.091693756406110 2.074000000000000
-0.615384195068643 -0.086092730332213 2.076000000000000
-0.613012772351615 -0.080093442883531 2.068000000000000
-0.612716344511987 -0.074389930005536 2.067000000000000
-0.611234205313845 -0.068558903328711 2.062000000000000
-0.610641349634588 -0.062846806947923 2.060000000000000
-0.610937777474216 -0.057228975625264 2.061000000000000
-0.612123488832730 -0.051680744122822 2.065000000000000
-0.612419916672358 -0.046043728726232 2.066000000000000
-0.615384195068643 -0.040577144642436 2.076000000000000
-0.614494911549758 -0.034837280684926 2.073000000000000
-0.614198483710129 -0.029141989552901 2.072000000000000
-0.610344921794959 -0.023316290567465 2.059000000000000
-0.609752066115702 -0.017656265244487 2.057000000000000
-0.607973499077932 -0.011983830566259 2.051000000000000
-0.607380643398675 -0.006356692227161 2.049000000000000
-0.604416365002391 -0.000737622161442 2.039000000000000
-0.601748514445735 0.004829015089644 2.030000000000000
-0.604712792842019 0.010443590600900 2.040000000000000
-0.607084215559047 0.016097257773661 2.048000000000000
-0.610048493955331 0.021815975400536 2.058000000000000
-0.610344921794959 0.027469434289066 2.059000000000000
-0.614494911549758 0.033337436898100 2.073000000000000
-0.615087767229014 0.039056307997566 2.075000000000000
-0.609159210436446 0.044311757644853 2.055000000000000
-0.601748514445735 0.049336066607105 2.030000000000000
-0.604416365002391 0.055142844614482 2.039000000000000
-0.606491359879790 0.060939383807545 2.046000000000000
-0.606787787719418 0.066579139786125 2.047000000000000
-0.603823509323134 0.071836453029165 2.037000000000000
-0.607677071238303 0.077913101626261 2.050000000000000
-0.605602076360904 0.083246065894553 2.043000000000000
-0.603823509323134 0.088584149570003 2.037000000000000
-0.601748514445735 0.093843118124565 2.030000000000000
-0.603527081483505 0.099700311878230 2.036000000000000
-0.605602076360904 0.105642101916763 2.043000000000000
-0.605898504200533 0.111295560805293 2.044000000000000
-0.605305648521276 0.116782929462901 2.042000000000000
-0.605898504200533 0.122499059980377 2.044000000000000
-0.606787787719418 0.128288824454761 2.047000000000000
-0.607973499077932 0.134160444632022 2.051000000000000
-0.605898504200533 0.139304308743005 2.044000000000000
-0.604119937162762 0.144480698081044 2.038000000000000
-0.602341370124992 0.149624200435204 2.032000000000000
-0.603230653643877 0.155422186655558 2.035000000000000
-0.606194932040161 0.161790422214061 2.045000000000000
-0.607677071238303 0.167804190897979 2.050000000000000
-0.607380643398675 0.173337787692594 2.049000000000000
-0.604119937162762 0.177992534654659 2.038000000000000
-0.602341370124992 0.183037376057179 2.032000000000000
-0.601155658766478 0.188234966537494 2.028000000000000
-0.602934225804248 0.194366218490159 2.034000000000000
-0.603527081483505 0.200137160647435 2.036000000000000
-0.603823509323134 0.205818025355865 2.037000000000000
-0.601155658766478 0.210466567640304 2.028000000000000
-0.599673519568336 0.215491863212072 2.023000000000000
-0.597598524690936 0.220271229918385 2.016000000000000
-0.597302096851308 0.225684241105441 2.015000000000000
-0.597005669011680 0.231091771128517 2.014000000000000
-0.599080663889079 0.237433686137588 2.021000000000000
-0.596412813332423 0.241890387682728 2.012000000000000
-0.592559251417253 0.245805901021141 1.999000000000000
-0.590780684379482 0.250530094330832 1.993000000000000
-0.591373540058739 0.256248965430299 1.995000000000000
-0.593744962775767 0.262765915929907 2.003000000000000
-0.591373540058739 0.267183887570364 1.995000000000000
-0.592262823577624 0.273061350668428 1.998000000000000
-0.591077112219111 0.277979401785763 1.994000000000000
-0.591373540058739 0.283586270780463 1.995000000000000
-0.589891400860597 0.288329286407261 1.990000000000000
-0.589891400860597 0.293783044567344 1.990000000000000
-0.591373540058739 0.299988653990561 1.995000000000000
-0.591373540058739 0.305456115060594 1.995000000000000
-0.590187828700225 0.310300170464200 1.991000000000000
-0.588112833822826 0.314646525216095 1.984000000000000
-0.589298545181340 0.320729170206585 1.988000000000000
-0.587816405983198 0.325357081389804 1.983000000000000
-0.587816405983198 0.330791655475957 1.983000000000000
-0.586927122464313 0.335717566582439 1.980000000000000
-0.587519978143569 0.341488508739716 1.982000000000000
-0.586334266785056 0.346220200281732 1.978000000000000
-0.584852127586914 0.350752191095301 1.973000000000000
-0.583073560549143 0.355076259434453 1.967000000000000
-0.582777132709514 0.360283726972260 1.966000000000000
-0.580998565671744 0.364555724253602 1.960000000000000
-0.581294993511372 0.370116003354472 1.961000000000000
-0.582184277030258 0.376064721584276 1.964000000000000
-0.583962844068028 0.382612541999419 1.970000000000000
-0.584259271907657 0.388208448666159 1.971000000000000
-0.582480704869886 0.392411931397752 1.965000000000000
-0.582480704869886 0.397797175008085 1.965000000000000
-0.581294993511372 0.402361691048711 1.961000000000000
-0.580702137832115 0.407320127382251 1.959000000000000
-0.579516426473602 0.411846275275017 1.955000000000000
-0.578923570794345 0.416777305788657 1.953000000000000
-0.580702137832115 0.423426527737430 1.959000000000000
-0.577737859435831 0.426606479832057 1.949000000000000
-0.577737859435831 0.431947874130550 1.949000000000000
-0.576255720237689 0.436167438597260 1.944000000000000
-0.578923570794345 0.443539088920923 1.953000000000000
-0.578034287275459 0.448201904156367 1.950000000000000
-0.576848575916946 0.452615688187543 1.946000000000000
