# This PCD file was generated using the MATLAB® pcwrite function
# from Computer Vision Toolbox®.
# .PCD v.7 - Point Cloud Data file format
VERSION .7
FIELDS x y z
SIZE 8 8 8
TYPE F F F
COUNT 1 1 1
WIDTH 864
HEIGHT 1
VIEWPOINT 0 0 0 1 0 0 0
POINTS 864
DATA ascii
-0.388836828085513 0.923456246608530 2.392000000000000
-0.388836828085513 0.930011718728589 2.392000000000000
-0.388674270883136 0.936175649380902 2.391000000000000
-0.388511713680760 0.942334098869236 2.390000000000000
-0.388674270883136 0.949281112457041 2.391000000000000
-0.387861484871252 0.953835027926530 2.386000000000000
-0.387698927668875 0.959971552758944 2.385000000000000
-0.386886141656991 0.964481618916593 2.380000000000000
-0.386723584454614 0.970596219093087 2.379000000000000
-0.386723584454614 0.977116063647276 2.379000000000000
-0.386886141656991 0.984049374325132 2.380000000000000
-0.386886141656991 0.990571959461311 2.380000000000000
-0.386073355645106 0.994999808159261 2.375000000000000
-0.386073355645106 1.001508690385490 2.375000000000000
-0.386073355645106 1.008017572611720 2.375000000000000
-0.386398470049860 1.015380792905181 2.377000000000000
-0.386235912847483 1.021465246679785 2.376000000000000
-0.386235912847483 1.027976869488004 2.376000000000000
-0.386073355645106 1.034053101516638 2.375000000000000
-0.386723584454614 1.042314509189171 2.379000000000000
-0.387048698859368 1.049716097630493 2.381000000000000
-0.387373813264121 1.057128648399774 2.383000000000000
-0.387048698859368 1.062766749066832 2.381000000000000
-0.386886141656991 1.068842981095465 2.380000000000000
-0.387048698859368 1.075817400503171 2.381000000000000
-0.387536370466498 1.083706450781888 2.384000000000000
-0.388511713680760 1.092983890859063 2.390000000000000
-0.389324499692644 1.101834161902622 2.395000000000000
-0.389324499692644 1.108397855768651 2.395000000000000
-0.389487056895021 1.115427086816156 2.396000000000000
-0.389812171299775 1.122930076791107 2.398000000000000
-0.391275186121167 1.133741157512209 2.407000000000000
-0.391600300525920 1.141285256217010 2.409000000000000
-0.391925414930674 1.148840317249771 2.411000000000000
-0.392738200942559 1.157844060884769 2.416000000000000
-0.393713544156820 1.167357191013083 2.422000000000000
-0.394851444573458 1.177387929380683 2.429000000000000
-0.395176558978212 1.185019726709164 2.431000000000000
-0.396151902192473 1.194623296043148 2.437000000000000
-0.396477016597227 1.202287980355508 2.439000000000000
-0.396964688204358 1.210459310579195 2.442000000000000
-0.397127245406734 1.217650235964109 2.443000000000000
-0.397614917013865 1.225848972007695 2.446000000000000
-0.397452359811488 1.232048530225879 2.445000000000000
-0.397940031418619 1.240269190925385 2.448000000000000
-0.397777474216242 1.246468749143568 2.447000000000000
-0.398265145823373 1.254711334498994 2.450000000000000
-0.398590260228127 1.262455495689064 2.452000000000000
-0.398915374632880 1.270210619207095 2.454000000000000
-0.399890717847142 1.280058100338188 2.460000000000000
-0.400215832251895 1.287846110840098 2.462000000000000
-0.400703503859026 1.296170913655224 2.465000000000000
-0.400703503859026 1.302926448260552 2.465000000000000
-0.401028618263780 1.310744605164353 2.467000000000000
-0.401841404275664 1.320175879589790 2.472000000000000
-0.401028618263780 1.324266636702970 2.467000000000000
-0.401678847073287 1.333185784053101 2.471000000000000
-0.401841404275664 1.340500035627566 2.472000000000000
-0.402816747489926 1.350544838661938 2.478000000000000
-0.402491633085172 1.356240491550786 2.476000000000000
-0.402166518680418 1.361925182111673 2.474000000000000
-0.402491633085172 1.369811853565223 2.476000000000000
-0.402816747489926 1.377709487346733 2.478000000000000
-0.403792090704187 1.387852951332745 2.484000000000000
-0.402816747489926 1.391291811689130 2.478000000000000
-0.402491633085172 1.396954577594098 2.476000000000000
-0.402003961478041 1.402039442456000 2.473000000000000
-0.402816747489926 1.411665298202726 2.478000000000000
-0.403466976299433 1.420746139890267 2.482000000000000
-0.403792090704187 1.428698585311577 2.484000000000000
-0.403792090704187 1.435506190974715 2.484000000000000
-0.402654190287549 1.438249305262465 2.477000000000000
-0.402654190287549 1.445037726851674 2.477000000000000
-0.402329075882795 1.450653902862812 2.475000000000000
-0.404279762311318 1.464503203740346 2.487000000000000
-0.404929991120825 1.473685446961517 2.491000000000000
-0.405742777132710 1.483483959373612 2.496000000000000
-0.405905334335086 1.490921537137626 2.497000000000000
-0.424975070008879 -0.780693115109925 2.659000000000000
-0.422577692780548 -0.769042955882111 2.644000000000000
-0.421139266443549 -0.759203751308628 2.635000000000000
-0.420499965849327 -0.750840788629874 2.631000000000000
-0.419700840106550 -0.742217108905247 2.626000000000000
-0.418901714363773 -0.733620835000521 2.621000000000000
-0.419061539512328 -0.726714930142565 2.622000000000000
-0.420979441294994 -0.722822163634669 2.634000000000000
-0.426253671197323 -0.724568890009483 2.667000000000000
-0.427212622088655 -0.718873390593226 2.673000000000000
-0.428011747831432 -0.712878805983239 2.678000000000000
-0.427532272385766 -0.704749154530456 2.675000000000000
-0.427692097534322 -0.697678814753101 2.676000000000000
-0.428331398128543 -0.691376923203411 2.680000000000000
-0.429450174168431 -0.685818814643478 2.687000000000000
-0.430409125059764 -0.679969842635782 2.693000000000000
-0.430728775356875 -0.673088964772559 2.695000000000000
-0.430568950208319 -0.665456082173610 2.694000000000000
-0.430249299911208 -0.657584407184710 2.692000000000000
-0.430089474762653 -0.649965227495711 2.691000000000000
-0.430249299911208 -0.642829113750596 2.692000000000000
-0.430728775356875 -0.636159622457425 2.695000000000000
-0.431527901099652 -0.629940310124258 2.700000000000000
-0.432486851990984 -0.623924162615173 2.706000000000000
-0.433765453179428 -0.618330788246192 2.714000000000000
-0.433765453179428 -0.610892848725355 2.714000000000000
-0.431368075951096 -0.600119675734339 2.699000000000000
-0.428491223277099 -0.588769895254956 2.681000000000000
-0.430409125059764 -0.584024807748173 2.693000000000000
-0.430728775356875 -0.577072674753211 2.695000000000000
-0.432007376545318 -0.571377898850600 2.703000000000000
-0.432007376545318 -0.563970105731653 2.703000000000000
-0.432486851990984 -0.557180028830923 2.706000000000000
-0.431687726248207 -0.548748189845596 2.701000000000000
-0.433126152585206 -0.543149696069457 2.710000000000000
-0.434724404070760 -0.537699555477601 2.720000000000000
-0.437281606447647 -0.533364261714618 2.736000000000000
-0.438240557338980 -0.527019244366734 2.742000000000000
-0.439838808824534 -0.521399187691498 2.752000000000000
-0.440478109418756 -0.514603991383610 2.756000000000000
-0.441437060310088 -0.508154831920107 2.762000000000000
-0.443514787241309 -0.502941466649858 2.775000000000000
-0.444633563281197 -0.496585848730836 2.782000000000000
-0.446231814766751 -0.490719139676502 2.792000000000000
-0.413148009015778 -0.100116803604413 2.585000000000000
-0.410910456936002 -0.092528548642590 2.571000000000000
-0.407554128816338 -0.084784288791568 2.550000000000000
-0.406275527627894 -0.077551739447389 2.542000000000000
-0.405476401885117 -0.070446342145218 2.537000000000000
-0.405316576736562 -0.063468458641877 2.536000000000000
-0.403558500102452 -0.056273192175090 2.525000000000000
-0.403718325251008 -0.049372768481115 2.526000000000000
-0.403079024656786 -0.042382837379346 2.522000000000000
-0.402439724062564 -0.035414830933497 2.518000000000000
-0.401161122874121 -0.028423452804438 2.510000000000000
-0.400042346834233 -0.021484507490011 2.503000000000000
-0.400361997131343 -0.014636516610667 2.505000000000000
-0.400202171982788 -0.007768256386926 2.504000000000000
-0.399722696537122 -0.000904753813520 2.501000000000000
-0.399243221091456 0.005942305267947 2.498000000000000
-0.398284270200123 0.012757562636001 2.492000000000000
-0.398284270200123 0.019587092955060 2.492000000000000
-0.397325319308790 0.026353019847295 2.486000000000000
-0.397325319308790 0.033166106674413 2.486000000000000
-0.396686018714569 0.039914866561063 2.482000000000000
-0.397485144457346 0.046811102645758 2.487000000000000
-0.397325319308790 0.053605367155769 2.486000000000000
-0.397804794754457 0.060491364426149 2.489000000000000
-0.398444095348678 0.067420849251547 2.493000000000000
-0.399403046240011 0.074431828022999 2.499000000000000
-0.400361997131343 0.081475693778331 2.505000000000000
-0.400681647428454 0.088411383281354 2.507000000000000
-0.400681647428454 0.095282022330262 2.507000000000000
-0.400361997131343 0.102071167433116 2.505000000000000
-0.400042346834233 0.108849350208010 2.503000000000000
-0.399882521685677 0.115662798791951 2.502000000000000
-0.400521822279899 0.122715609806899 2.506000000000000
-0.401161122874121 0.129790345477766 2.510000000000000
-0.402759374359675 0.137213705102416 2.520000000000000
-0.403238849805341 0.144291543112095 2.523000000000000
-0.403718325251008 0.151385824613715 2.526000000000000
-0.404197800696674 0.158496549607275 2.529000000000000
-0.404837101290895 0.165689130303711 2.533000000000000
-0.404837101290895 0.172631024484359 2.533000000000000
-0.404517450993785 0.179431131915173 2.531000000000000
-0.404996926439451 0.186588446802563 2.534000000000000
-0.405955877330783 0.193991328798584 2.540000000000000
-0.405636227033673 0.200794176811388 2.538000000000000
-0.406115702479339 0.207995341010617 2.541000000000000
-0.406435352776450 0.215128352416919 2.543000000000000
-0.407394303667782 0.222621673618610 2.549000000000000
-0.407873779113449 0.229877649457639 2.552000000000000
-0.408513079707670 0.237242886819445 2.556000000000000
-0.409152380301892 0.244630048837171 2.560000000000000
-0.408832730004781 0.251449340341915 2.558000000000000
-0.408353254559115 0.258156629741892 2.555000000000000
-0.408033604262004 0.264951256008726 2.553000000000000
-0.408193429410559 0.272054482769961 2.554000000000000
-0.409152380301892 0.279709498309061 2.560000000000000
-0.409951506044669 0.287285398727274 2.565000000000000
-0.410750631787446 0.294888704965386 2.570000000000000
-0.411389932381668 0.302401933754652 2.574000000000000
-0.410590806638891 0.308855072543205 2.569000000000000
-0.409152380301892 0.314788947780951 2.560000000000000
-0.408832730004781 0.321553427645895 2.558000000000000
-0.408992555153337 0.328692281973000 2.559000000000000
-0.408992555153337 0.335705431285388 2.559000000000000
-0.407713953964893 0.341647166512280 2.551000000000000
-0.407074653370671 0.348091721798041 2.547000000000000
-0.406595177925005 0.354653760352548 2.544000000000000
-0.406435352776450 0.361483652428430 2.543000000000000
-0.405955877330783 0.368018285163037 2.540000000000000
-0.406275527627894 0.375274622758889 2.542000000000000
-0.405955877330783 0.381940441672193 2.540000000000000
-0.405316576736562 0.388289076588304 2.536000000000000
-0.403718325251008 0.393680678348854 2.526000000000000
-0.403079024656786 0.399969020461185 2.522000000000000
-0.403079024656786 0.406880768239943 2.522000000000000
-0.403878150399563 0.414612881831586 2.527000000000000
-0.403238849805341 0.420871077542027 2.523000000000000
-0.402279898914009 0.426768239943434 2.517000000000000
-0.401640598319787 0.432977105178056 2.513000000000000
-0.401960248616898 0.440214258699977 2.515000000000000
-0.401800423468342 0.446929046332279 2.514000000000000
-0.400841472577010 0.452735769528017 2.508000000000000
-0.400202171982788 0.458876120212888 2.504000000000000
-0.400521822279899 0.466110533152820 2.506000000000000
-0.400361997131343 0.472789693219252 2.505000000000000
-0.399882521685677 0.479080414156750 2.502000000000000
-0.398763745645789 0.484577813344442 2.495000000000000
-0.399083395942900 0.491809485702384 2.497000000000000
-0.398923570794345 0.498453018202946 2.496000000000000
-0.399722696537122 0.506305717402147 2.501000000000000
-0.399562871388566 0.512954731066689 2.500000000000000
-0.399083395942900 0.519182418618418 2.497000000000000
-0.398444095348678 0.525182999621800 2.493000000000000
-0.397804794754457 0.531161655969262 2.489000000000000
-0.397964619903012 0.538199108762737 2.490000000000000
-0.398444095348678 0.545679812324945 2.493000000000000
-0.398763745645789 0.552955333994727 2.495000000000000
-0.398124445051568 0.558895622194329 2.491000000000000
-0.397485144457346 0.564813985738011 2.487000000000000
-0.397325319308790 0.571399966016783 2.486000000000000
-0.398603920497234 0.580073754542515 2.494000000000000
-0.398603920497234 0.586908766025553 2.494000000000000
-0.398444095348678 0.593505708632285 2.493000000000000
-0.398124445051568 0.599856360616741 2.491000000000000
-0.398444095348678 0.607170250434382 2.493000000000000
-0.398124445051568 0.613509940090878 2.491000000000000
-0.396526193566013 0.617846417785281 2.481000000000000
-0.396366368417458 0.624394029916193 2.480000000000000
-0.396845843863124 0.631954210356111 2.483000000000000
-0.396686018714569 0.638501822487023 2.482000000000000
-0.395407417526125 0.643223998728370 2.474000000000000
-0.393809166040571 0.647376857429444 2.464000000000000
-0.393010040297794 0.652802277971750 2.459000000000000
-0.391891264257906 0.657663862137764 2.452000000000000
-0.391571613960795 0.663841857456850 2.450000000000000
-0.390293012772352 0.668366711794917 2.442000000000000
-0.389653712178130 0.673953464917810 2.438000000000000
-0.389014411583908 0.679518293384783 2.434000000000000
-0.388694761286797 0.685625033572129 2.432000000000000
-0.388055460692576 0.691151493891243 2.428000000000000
-0.387575985246909 0.696943428906563 2.425000000000000
-0.387096509801243 0.702718920429943 2.422000000000000
-0.386617034355577 0.708477968461382 2.419000000000000
-0.386617034355577 0.715107436295171 2.419000000000000
-0.386297384058466 0.721140180768788 2.417000000000000
-0.386137558909911 0.727463065176521 2.416000000000000
-0.385658083464244 0.733172782732141 2.413000000000000
-0.385498258315689 0.739479223647934 2.412000000000000
-0.385338433167133 0.745780183399747 2.411000000000000
-0.384539307424356 0.750827403627434 2.406000000000000
-0.384379482275801 0.757106438723327 2.405000000000000
-0.384059831978690 0.763062446901224 2.403000000000000
-0.384539307424356 0.770608924431192 2.406000000000000
-0.384539307424356 0.777202764699112 2.406000000000000
-0.385018782870023 0.784773907466990 2.409000000000000
-0.384858957721467 0.791047461398903 2.408000000000000
-0.384858957721467 0.797646782830802 2.408000000000000
-0.384699132572912 0.803912115016745 2.407000000000000
-0.385018782870023 0.811182155522547 2.409000000000000
-0.384858957721467 0.817444747126500 2.408000000000000
-0.384219657127245 0.822675224590694 2.404000000000000
-0.383740181681579 0.828228728972885 2.401000000000000
-0.383100881087357 0.833418097707229 2.397000000000000
-0.383420531384468 0.840688138213031 2.399000000000000
-0.383260706235913 0.846909621087134 2.398000000000000
-0.384379482275801 0.855972934012267 2.405000000000000
-0.384379482275801 0.862564033698196 2.405000000000000
-0.384699132572912 0.869877923515838 2.407000000000000
-0.383900006830135 0.874653826126516 2.402000000000000
-0.383260706235913 0.879769199147131 2.398000000000000
-0.383100881087357 0.885971497947304 2.397000000000000
-0.383260706235913 0.892913030371130 2.398000000000000
-0.383260706235913 0.899484945983129 2.398000000000000
-0.383420531384468 0.906434700152924 2.399000000000000
-0.382941055938802 0.911867618927555 2.396000000000000
-0.383100881087357 0.918817373097351 2.397000000000000
-0.382301755344580 0.923456246608530 2.392000000000000
-0.382141930196025 0.929622917842833 2.391000000000000
-0.382141930196025 0.936175649380902 2.391000000000000
-0.382301755344580 0.943122662968708 2.392000000000000
-0.382461580493136 0.950075157720493 2.393000000000000
-0.381502629601803 0.954234791140246 2.387000000000000
-0.381502629601803 0.960776560350356 2.387000000000000
-0.380703503859026 0.965292107671985 2.382000000000000
-0.380863329007581 0.972228158931831 2.383000000000000
-0.380543678710471 0.977937514730628 2.381000000000000
-0.380703503859026 0.984876306572464 2.382000000000000
-0.380543678710471 0.990988166166967 2.381000000000000
-0.380064203264804 0.996256650022199 2.378000000000000
-0.379904378116249 1.002352066124762 2.377000000000000
-0.379584727819138 1.008017572611720 2.375000000000000
-0.379904378116249 1.015380792905181 2.377000000000000
-0.379744552967693 1.021465246679785 2.376000000000000
-0.380064203264804 1.028842169883196 2.378000000000000
-0.380224028413360 1.035794664634982 2.379000000000000
-0.380383853561915 1.042752640550747 2.380000000000000
-0.380543678710471 1.049716097630493 2.381000000000000
-0.380543678710471 1.056241423348662 2.381000000000000
-0.380703503859026 1.063213102174378 2.382000000000000
-0.380543678710471 1.069292074785001 2.381000000000000
-0.381023154156137 1.077172903317748 2.384000000000000
-0.381822279898914 1.085979325049468 2.389000000000000
-0.382461580493136 1.094355837165580 2.393000000000000
-0.383260706235913 1.103214329955109 2.398000000000000
-0.383900006830135 1.111637431965052 2.402000000000000
-0.384379482275801 1.119616921449439 2.405000000000000
-0.384858957721467 1.127612854425766 2.408000000000000
-0.385977733761355 1.137509304275856 2.415000000000000
-0.386297384058466 1.145075327636577 2.417000000000000
-0.386617034355577 1.152652313325258 2.419000000000000
-0.387256334949798 1.161198741524750 2.423000000000000
-0.388215285841131 1.170731055726994 2.429000000000000
-0.389014411583908 1.179811535657712 2.434000000000000
-0.389653712178130 1.188431959570935 2.438000000000000
-0.390452837920907 1.197564510559462 2.443000000000000
-0.390932313366573 1.205738581365139 2.446000000000000
-0.390932313366573 1.212442044912658 2.446000000000000
-0.390772488218018 1.218647084294821 2.445000000000000
-0.391251963663684 1.226851301502387 2.448000000000000
-0.391571613960795 1.234568056872557 2.450000000000000
-0.391891264257906 1.242295774570688 2.452000000000000
-0.391731439109350 1.248506295116831 2.451000000000000
-0.392051089406461 1.256247715724911 2.453000000000000
-0.393329690594905 1.267089304604726 2.461000000000000
-0.393649340892016 1.274869093360666 2.463000000000000
-0.394448466634793 1.284220890908393 2.468000000000000
-0.394448466634793 1.290984647259692 2.468000000000000
-0.395407417526125 1.300903383522525 2.474000000000000
-0.395727067823236 1.308740724500255 2.476000000000000
-0.396526193566013 1.318182961253652 2.481000000000000
-0.396845843863124 1.326050448633272 2.483000000000000
-0.395886892971792 1.329634559835126 2.477000000000000
-0.396366368417458 1.338041580109952 2.480000000000000
-0.396845843863124 1.346465043876718 2.483000000000000
-0.397644969605901 1.355994979253794 2.488000000000000
-0.396845843863124 1.360074774039015 2.483000000000000
-0.396526193566013 1.365778648673832 2.481000000000000
-0.396526193566013 1.372578032591001 2.481000000000000
-0.397005669011680 1.381045345669606 2.484000000000000
-0.397644969605901 1.390087819209287 2.488000000000000
-0.396845843863124 1.394099099444758 2.483000000000000
-0.396206543268902 1.398647171993444 2.479000000000000
-0.396686018714569 1.407141890891950 2.482000000000000
-0.397644969605901 1.417362091173682 2.488000000000000
-0.398923570794345 1.428760018197464 2.496000000000000
-0.399083395942900 1.436175671305558 2.497000000000000
-0.400521822279899 1.448220013922156 2.506000000000000
-0.399882521685677 1.452765345888853 2.502000000000000
-0.401001297725565 1.463705957477130 2.509000000000000
-0.399882521685677 1.466479218166770 2.502000000000000
-0.399083395942900 1.470391837450601 2.497000000000000
-0.416925073423946 -0.771951590359729 2.654000000000000
-0.414882863192405 -0.760932488503259 2.641000000000000
-0.413783211529267 -0.751696935481219 2.634000000000000
-0.414254490813469 -0.745326167624957 2.637000000000000
-0.414097397718735 -0.737819351797548 2.636000000000000
-0.414725770097671 -0.731703819823178 2.640000000000000
-0.413626118434533 -0.722547743678848 2.633000000000000
-0.415982514855543 -0.719406981906678 2.648000000000000
-0.417710538897616 -0.715108247507441 2.659000000000000
-0.419438562939690 -0.710749220304424 2.670000000000000
-0.419752749129158 -0.703958781646871 2.672000000000000
-0.420381121508094 -0.697678814753101 2.676000000000000
-0.420538214602828 -0.690602993811766 2.677000000000000
-0.421637866265965 -0.685053106997802 2.684000000000000
-0.422266238644901 -0.678707366136273 2.688000000000000
-0.423051704118571 -0.672589455336735 2.693000000000000
-0.423208797213305 -0.665456082173610 2.694000000000000
-0.423051704118571 -0.657828680738642 2.693000000000000
-0.423208797213305 -0.650689826411537 2.694000000000000
-0.423680076497507 -0.644023075700356 2.697000000000000
-0.424308448876443 -0.637575933305197 2.701000000000000
-0.424779728160645 -0.630873555028146 2.704000000000000
-0.425408100539581 -0.624385303903137 2.708000000000000
-0.426507752202718 -0.618558618308184 2.715000000000000
-0.427136124581654 -0.612018296125365 2.719000000000000
-0.426664845297452 -0.603899607000543 2.716000000000000
-0.423994262686975 -0.592722844943352 2.699000000000000
-0.424465541971177 -0.585976617354461 2.702000000000000
-0.423680076497507 -0.577500929057295 2.697000000000000
-0.425093914350113 -0.572012058560756 2.706000000000000
-0.424779728160645 -0.564178751719715 2.704000000000000
-0.425093914350113 -0.557180028830923 2.706000000000000
-0.424308448876443 -0.548748189845596 2.701000000000000
-0.426193566013250 -0.543750968795733 2.713000000000000
-0.428864148623728 -0.539676392078622 2.730000000000000
-0.431220545044737 -0.535118749417626 2.745000000000000
-0.433419848371013 -0.530286686800809 2.759000000000000
-0.434048220749949 -0.523483268746951 2.763000000000000
-0.434519500034151 -0.516471204705031 2.766000000000000
-0.435462058602555 -0.509994639421628 2.772000000000000
-0.436875896455160 -0.504028907658830 2.781000000000000
-0.437347175739362 -0.496942847903181 2.784000000000000
-0.405457277508367 -0.107035326101851 2.581000000000000
-0.403572160371559 -0.085416014864917 2.569000000000000
-0.401687043234752 -0.078009361828078 2.557000000000000
-0.400901577761082 -0.070862855796057 2.552000000000000
-0.400587391571614 -0.063818836568134 2.550000000000000
-0.399173553719008 -0.056629774778972 2.541000000000000
-0.399330646813742 -0.049685501773157 2.542000000000000
-0.399330646813742 -0.042718942354598 2.542000000000000
-0.398545181340072 -0.035682059602177 2.537000000000000
-0.396974250392733 -0.028615962245743 2.527000000000000
-0.395246226350659 -0.021596093026315 2.516000000000000
-0.395717505634861 -0.014718317501905 2.519000000000000
-0.395560412540127 -0.007811689130304 2.518000000000000
-0.395089133255925 -0.000909818409037 2.515000000000000
-0.393989481592787 0.005966093519620 2.508000000000000
-0.394460760876989 0.012854831371990 2.511000000000000
-0.394460760876989 0.019736432748859 2.511000000000000
-0.393832388498053 0.026575631841178 2.507000000000000
-0.391947271361246 0.033286177052559 2.495000000000000
-0.391475992077044 0.040075683912236 2.492000000000000
-0.392575643740182 0.047036970451045 2.499000000000000
-0.392889829929650 0.053928810642228 2.501000000000000
-0.392889829929650 0.060783006199196 2.501000000000000
-0.392889829929650 0.067637201756165 2.501000000000000
-0.393989481592787 0.074699889828604 2.508000000000000
-0.395560412540127 0.081898521730075 2.518000000000000
-0.395560412540127 0.088799307180873 2.518000000000000
-0.395403319445393 0.095662086240634 2.517000000000000
-0.394774947066457 0.102397143217334 2.513000000000000
-0.394932040161191 0.109327713313199 2.514000000000000
-0.395246226350659 0.116309992710052 2.516000000000000
-0.395874598729595 0.123401171872859 2.520000000000000
-0.396974250392733 0.130669403594547 2.527000000000000
-0.397916808961137 0.137921553581118 2.533000000000000
-0.398073902055871 0.144920638226734 2.534000000000000
-0.397916808961137 0.151805341942415 2.533000000000000
-0.398388088245338 0.158935251009904 2.536000000000000
-0.399016460624274 0.166147015780271 2.540000000000000
-0.399487739908476 0.173312552413631 2.543000000000000
-0.399487739908476 0.180281852414179 2.543000000000000
-0.400116112287412 0.187545688242355 2.547000000000000
-0.401215763950550 0.195060572343143 2.554000000000000
-0.401058670855816 0.201980903624694 2.553000000000000
-0.401058670855816 0.208977609445142 2.553000000000000
-0.401058670855816 0.215974315265590 2.553000000000000
-0.402158322518954 0.223582379154037 2.560000000000000
-0.403257974182091 0.231228811190344 2.567000000000000
-0.404514718939963 0.239006429405348 2.575000000000000
-0.405300184413633 0.246541221093711 2.580000000000000
-0.404828905129431 0.253317025043438 2.577000000000000
-0.404357625845229 0.260076385501225 2.574000000000000
-0.404200532750495 0.267026863184666 2.573000000000000
-0.404357625845229 0.274184901585701 2.574000000000000
-0.404357625845229 0.281239159627939 2.574000000000000
-0.404828905129431 0.288629423984477 2.577000000000000
-0.405614370603101 0.296265617206470 2.582000000000000
-0.406085649887303 0.303694249710869 2.585000000000000
-0.404671812034697 0.309696639498364 2.576000000000000
-0.403257974182091 0.315649698810039 2.567000000000000
-0.402629601803156 0.322181952719479 2.563000000000000
-0.403415067276825 0.329848292343362 2.568000000000000
-0.403257974182091 0.336754920714963 2.567000000000000
-0.402943787992623 0.343522141161897 2.565000000000000
-0.402315415613688 0.350005064595517 2.561000000000000
-0.401844136329486 0.356605471297885 2.558000000000000
-0.401687043234752 0.363473731521626 2.557000000000000
-0.402001229424220 0.370771177847328 2.559000000000000
-0.402158322518954 0.377931956830352 2.560000000000000
-0.401058670855816 0.383895254956342 2.553000000000000
-0.399959019192678 0.389820184934473 2.546000000000000
-0.398073902055871 0.394927489681709 2.534000000000000
-0.397916808961137 0.401713532445750 2.533000000000000
-0.397759715866403 0.408494094045812 2.532000000000000
-0.398073902055871 0.415761393969623 2.534000000000000
-0.397759715866403 0.422372401243128 2.532000000000000
-0.397131343487467 0.428633337535559 2.528000000000000
-0.396974250392733 0.435389233897711 2.527000000000000
-0.396974250392733 0.442314684586419 2.527000000000000
-0.396817157297999 0.449062359202600 2.526000000000000
-0.395874598729595 0.454901969382218 2.520000000000000
-0.395246226350659 0.461075207050969 2.516000000000000
-0.395246226350659 0.467970511337788 2.516000000000000
-0.394932040161191 0.474488338823633 2.514000000000000
-0.394617853971723 0.480995203981517 2.512000000000000
-0.393675295403320 0.486714228553576 2.506000000000000
-0.393989481592787 0.493976047313407 2.508000000000000
-0.393675295403320 0.500450025487412 2.506000000000000
-0.393832388498053 0.507520365264768 2.507000000000000
-0.392889829929650 0.513159912959116 2.501000000000000
-0.393046923024384 0.520222030990501 2.502000000000000
-0.393204016119118 0.527289630185866 2.503000000000000
-0.393204016119118 0.534149306906815 2.503000000000000
-0.393204016119118 0.541008983627763 2.503000000000000
-0.393675295403320 0.548525314755842 2.506000000000000
-0.393518202308585 0.555171587838393 2.505000000000000
-0.393204016119118 0.561588013790609 2.503000000000000
-0.392418550645448 0.567312157769824 2.498000000000000
-0.393204016119118 0.575307367232505 2.503000000000000
-0.393989481592787 0.583329982515087 2.508000000000000
-0.394146574687521 0.590438690440302 2.509000000000000
-0.393675295403320 0.596600604024271 2.506000000000000
-0.393046923024384 0.602505264658003 2.502000000000000
-0.393204016119118 0.609605750837248 2.503000000000000
-0.392732736834916 0.615726555691367 2.500000000000000
-0.392104364455980 0.621581885849279 2.496000000000000
-0.392104364455980 0.628422378496297 2.496000000000000
-0.392575643740182 0.636026408248056 2.499000000000000
-0.391947271361246 0.641846110840098 2.495000000000000
-0.391947271361246 0.648683862905126 2.495000000000000
-0.389905061129704 0.652106071485341 2.482000000000000
-0.389433781845502 0.658111771895880 2.479000000000000
-0.388491223277099 0.663296382979890 2.473000000000000
-0.389276688750768 0.671428621542071 2.478000000000000
-0.387862850898163 0.675756515733681 2.469000000000000
-0.386763199235025 0.680587953497805 2.462000000000000
-0.385349361382419 0.684822667901755 2.453000000000000
-0.384720989003483 0.690417642770619 2.449000000000000
-0.383778430435080 0.695421375443289 2.443000000000000
-0.383935523529814 0.702404016596964 2.444000000000000
-0.383778430435080 0.708811859046387 2.443000000000000
-0.382992964961410 0.714042698267404 2.438000000000000
-0.382678778771942 0.720132994962810 2.436000000000000
-0.382050406393006 0.725615605970084 2.432000000000000
-0.381579127108804 0.731377394583514 2.429000000000000
-0.380322382350932 0.735603525484672 2.421000000000000
-0.380636568540400 0.742851641334554 2.423000000000000
-0.380793661635134 0.749801395504349 2.424000000000000
-0.379694009971997 0.754260114117834 2.417000000000000
-0.378908544498327 0.759310074927511 2.412000000000000
-0.378908544498327 0.765920358687371 2.412000000000000
-0.379379823782529 0.773491501455249 2.415000000000000
-0.379065637593061 0.779463953125086 2.413000000000000
-0.379065637593061 0.786076977466935 2.413000000000000
-0.378594358308859 0.791704477562855 2.410000000000000
-0.378280172119391 0.797646782830802 2.408000000000000
-0.378594358308859 0.804914082754614 2.410000000000000
-0.379222730687795 0.812865804662278 2.414000000000000
-0.379379823782529 0.819821039996053 2.415000000000000
-0.378123079024657 0.823701857566473 2.407000000000000
-0.377965985929923 0.829953486842466 2.406000000000000
-0.377337613550987 0.835156558486760 2.402000000000000
-0.377651799740455 0.842440301902512 2.404000000000000
-0.377180520456253 0.847969141046793 2.401000000000000
-0.377965985929923 0.856328847914143 2.406000000000000
-0.378280172119391 0.863639997149795 2.408000000000000
-0.378594358308859 0.870962108713406 2.410000000000000
-0.378123079024657 0.876474504365747 2.407000000000000
-0.377337613550987 0.881236704066475 2.402000000000000
-0.376866334266785 0.886710731570956 2.399000000000000
-0.377023427361519 0.893657745158762 2.400000000000000
-0.377180520456253 0.900610239910547 2.401000000000000
-0.377180520456253 0.907190377268517 2.401000000000000
-0.376866334266785 0.913009356346914 2.399000000000000
-0.376866334266785 0.919584012540903 2.399000000000000
-0.376237961887849 0.924614427519828 2.395000000000000
-0.376237961887849 0.931178121385857 2.395000000000000
-0.375609589508913 0.936175649380902 2.391000000000000
-0.375766682603647 0.943122662968708 2.392000000000000
-0.375609589508913 0.949281112457041 2.391000000000000
-0.375295403319445 0.955034317567679 2.389000000000000
-0.374981217129977 0.960776560350356 2.387000000000000
-0.374195751656308 0.965292107671985 2.382000000000000
-0.374667030940510 0.973044128851203 2.385000000000000
-0.374509937845776 0.979169691355656 2.384000000000000
-0.374667030940510 0.986116704943462 2.385000000000000
-0.374195751656308 0.991404372872623 2.382000000000000
-0.374038658561574 0.997513491885137 2.381000000000000
-0.373881565466840 1.003617129733670 2.380000000000000
-0.373567379277372 1.009290857966598 2.378000000000000
-0.373410286182638 1.015380792905181 2.377000000000000
-0.373410286182638 1.021895156295391 2.377000000000000
-0.373881565466840 1.029707470278388 2.380000000000000
-0.373881565466840 1.036230055414568 2.380000000000000
-0.373881565466840 1.042752640550747 2.380000000000000
-0.374038658561574 1.049716097630493 2.381000000000000
-0.374195751656308 1.056685035874218 2.382000000000000
-0.374824124035244 1.064998514604561 2.386000000000000
-0.375138310224711 1.072435730611753 2.388000000000000
-0.375452496414179 1.079883908946904 2.390000000000000
-0.375609589508913 1.086888474756499 2.391000000000000
-0.375452496414179 1.092983890859063 2.390000000000000
-0.376552148077317 1.102754273937613 2.397000000000000
-0.377337613550987 1.111637431965052 2.402000000000000
-0.378437265214125 1.121479070175342 2.409000000000000
-0.378751451403593 1.129017687716163 2.411000000000000
-0.379536916877262 1.137980322621312 2.416000000000000
-0.379851103066730 1.145549086564023 2.418000000000000
-0.380950754729868 1.155511310381873 2.425000000000000
-0.381579127108804 1.164074182073305 2.429000000000000
-0.382521685677208 1.173622939767489 2.435000000000000
-0.383307151150878 1.182719863190147 2.440000000000000
-0.383778430435080 1.190869268757913 2.443000000000000
-0.384406802814016 1.199525320237006 2.447000000000000
-0.384249709719282 1.205738581365139 2.446000000000000
-0.384878082098217 1.214424779246121 2.450000000000000
-0.384720989003483 1.220640780956244 2.449000000000000
-0.385663547571887 1.230359454733807 2.455000000000000
-0.385977733761355 1.238095394177907 2.457000000000000
-0.386606106140291 1.246855587772619 2.461000000000000
-0.386291919950823 1.252581387063357 2.459000000000000
-0.387391571613961 1.262905367703886 2.466000000000000
-0.388334130182365 1.272752848834978 2.472000000000000
-0.388805409466566 1.281080392232094 2.475000000000000
-0.388805409466566 1.287863332657323 2.475000000000000
-0.388805409466566 1.294646273082552 2.475000000000000
-0.389433781845502 1.303532533448803 2.479000000000000
-0.390847619698108 1.315083571307203 2.488000000000000
-0.391633085171778 1.324558695044479 2.493000000000000
-0.392418550645448 1.334061224601657 2.498000000000000
-0.391633085171778 1.338223236846577 2.493000000000000
-0.392575643740182 1.348292705118859 2.499000000000000
-0.392732736834916 1.355683692989043 2.500000000000000
-0.393204016119118 1.364170190141578 2.503000000000000
-0.392261457550714 1.367743339015473 2.497000000000000
-0.391947271361246 1.373485581798151 2.495000000000000
-0.391790178266512 1.379770098058024 2.494000000000000
-0.392261457550714 1.388273038702499 2.497000000000000
-0.392575643740182 1.396233705869778 2.499000000000000
-0.391790178266512 1.400275132507139 2.494000000000000
-0.391790178266512 1.407110143990178 2.494000000000000
-0.392732736834916 1.417346787763849 2.500000000000000
-0.394303667782255 1.429895035709783 2.510000000000000
-0.394617853971723 1.437918736262833 2.512000000000000
-0.394303667782255 1.443652757299540 2.510000000000000
-0.410909090909091 -0.774278497941823 2.662000000000000
-0.408593675295403 -0.762661225697889 2.647000000000000
-0.407667509049928 -0.753694611467691 2.641000000000000
-0.408130592172666 -0.747304659537499 2.644000000000000
-0.408439314254491 -0.740618362995566 2.646000000000000
-0.409056758418141 -0.734475425201296 2.650000000000000
-0.408439314254491 -0.726115203104531 2.646000000000000
-0.409519841540878 -0.720765378775837 2.653000000000000
-0.409982924663616 -0.714301431131915 2.656000000000000
-0.411680896113653 -0.709950625674868 2.667000000000000
-0.412607062359128 -0.704222239274732 2.673000000000000
-0.413687589645516 -0.698721682936588 2.680000000000000
-0.414305033809166 -0.692408829058939 2.684000000000000
-0.414768116931904 -0.685818814643478 2.687000000000000
-0.415385561095554 -0.679464852035978 2.691000000000000
-0.416157366300116 -0.673338719490471 2.696000000000000
-0.416466088381941 -0.666444138717298 2.698000000000000
-0.416311727341029 -0.658805774954369 2.697000000000000
-0.416157366300116 -0.651172892355421 2.696000000000000
-0.416311727341029 -0.644023075700356 2.697000000000000
-0.417083532545591 -0.637811985113159 2.702000000000000
-0.417855337750154 -0.631573488706062 2.707000000000000
-0.418627142954716 -0.625307586479065 2.712000000000000
-0.419090226077454 -0.618558618308184 2.715000000000000
-0.419244587118366 -0.611343027685359 2.716000000000000
-0.420633836486579 -0.605900747082651 2.725000000000000
-0.420170753363841 -0.597773836211858 2.722000000000000
-0.420016392322929 -0.590097104301069 2.721000000000000
-0.419862031282016 -0.582425853554261 2.720000000000000
-0.420016392322929 -0.575182857111536 2.721000000000000
-0.419553309200191 -0.567099795552584 2.718000000000000
-0.418627142954716 -0.558415461267355 2.712000000000000
-0.417855337750154 -0.549967178790088 2.707000000000000
-0.419398948159279 -0.544552665764102 2.717000000000000
-0.420479475445666 -0.538490290118010 2.724000000000000
-0.425727750836692 -0.537653009433083 2.758000000000000
-0.428197527491292 -0.533169724242640 2.774000000000000
-0.428351888532204 -0.525756811716536 2.775000000000000
-0.429123693736767 -0.519085303355020 2.780000000000000
-0.430821665186804 -0.513490273674517 2.791000000000000
-0.430512943104979 -0.505478829004127 2.789000000000000
-0.399640734922478 -0.086080989678968 2.589000000000000
-0.397788402431528 -0.078619525002330 2.577000000000000
-0.395936069940578 -0.071223834293451 2.565000000000000
-0.395936069940578 -0.064194241489123 2.565000000000000
-0.395164264736015 -0.057053216621082 2.560000000000000
-0.394855542654190 -0.049998235065198 2.558000000000000
-0.395164264736015 -0.043021436832326 2.560000000000000
-0.395164264736015 -0.036005546937948 2.560000000000000
-0.394083737449628 -0.028910388450091 2.553000000000000
-0.391922682876853 -0.021793513590546 2.539000000000000
-0.390996516631378 -0.014800118393142 2.533000000000000
-0.390687794549553 -0.007852019534868 2.531000000000000
-0.390070350385903 -0.000914159490910 2.527000000000000
-0.389607267263165 0.006004154722297 2.524000000000000
-0.390996516631378 0.012967458329451 2.533000000000000
-0.391305238713203 0.019925072488394 2.535000000000000
-0.389761628304078 0.026766442121649 2.525000000000000
-0.387909295813128 0.033526317808850 2.513000000000000
-0.387137490608565 0.040332991674112 2.508000000000000
-0.388681101017690 0.047394594476083 2.518000000000000
-0.389298545181340 0.054381631523270 2.522000000000000
-0.390070350385903 0.061414896707465 2.527000000000000
-0.389761628304078 0.068286259270019 2.525000000000000
-0.390224711426815 0.075295582729949 2.528000000000000
-0.390533433508640 0.082288824454761 2.530000000000000
-0.390070350385903 0.089116699462298 2.527000000000000
-0.389607267263165 0.095928130977894 2.524000000000000
-0.390070350385903 0.102967600839714 2.527000000000000
-0.390379072467728 0.109980026638457 2.529000000000000
-0.390996516631378 0.117095871039174 2.533000000000000
-0.391305238713203 0.124135702657816 2.535000000000000
-0.391768321835940 0.131238205905406 2.538000000000000
-0.392385765999590 0.138411602527913 2.542000000000000
-0.392077043917765 0.145263781016537 2.540000000000000
-0.392231404958678 0.152284790318072 2.541000000000000
-0.392694488081415 0.159436624041481 2.544000000000000
-0.393466293285978 0.166735725678705 2.549000000000000
-0.393466293285978 0.173721469171193 2.549000000000000
-0.393929376408715 0.180919892788432 2.552000000000000
-0.394701181613278 0.188282027811426 2.557000000000000
-0.395781708899665 0.195824317732114 2.564000000000000
-0.395472986817840 0.202692939712677 2.562000000000000
-0.395936069940578 0.209959877879666 2.565000000000000
-0.396090430981490 0.217074066968861 2.566000000000000
-0.397325319308790 0.224805095290036 2.574000000000000
-0.398714568677003 0.232670050371897 2.583000000000000
-0.400258179086128 0.240677153960415 2.593000000000000
-0.401647428454341 0.248643510575906 2.602000000000000
-0.401029984290691 0.255381308134595 2.598000000000000
-0.400721262208866 0.262299260590979 2.596000000000000
-0.400875623249778 0.269517591795794 2.597000000000000
-0.400875623249778 0.276634883223801 2.597000000000000
-0.400412540127040 0.283424390083478 2.594000000000000
-0.400103818045216 0.290309455555982 2.592000000000000
-0.400875623249778 0.297986757507824 2.597000000000000
-0.401647428454341 0.305691465279567 2.602000000000000
-0.400103818045216 0.311620221110155 2.592000000000000
-0.398560207636090 0.317494165300943 2.582000000000000
-0.397942763472440 0.324067527940233 2.578000000000000
-0.398251485554265 0.331389639503845 2.580000000000000
-0.396707875145140 0.337148479251054 2.570000000000000
-0.397788402431528 0.345129262290140 2.577000000000000
-0.398251485554265 0.352601744106378 2.580000000000000
-0.398405846595178 0.359811853565223 2.581000000000000
-0.397016597226965 0.365605959121479 2.572000000000000
-0.397170958267878 0.372799625088384 2.573000000000000
-0.397325319308790 0.379998772219268 2.574000000000000
-0.396090430981490 0.385850068240491 2.566000000000000
-0.395009903695103 0.391810625784492 2.559000000000000
-0.393775015367803 0.397576963764025 2.551000000000000
-0.393620654326890 0.404409596421896 2.550000000000000
-0.393003210163240 0.410752750174027 2.546000000000000
-0.392231404958678 0.416909906107661 2.541000000000000
-0.391459599754115 0.423039656221395 2.536000000000000
-0.391305238713203 0.429820217821457 2.535000000000000
-0.391768321835940 0.437284477891725 2.538000000000000
-0.391613960795028 0.444065039491786 2.537000000000000
-0.391459599754115 0.450840119927868 2.536000000000000
-0.389915989344990 0.455985069309318 2.526000000000000
-0.389761628304078 0.462724522179530 2.525000000000000
-0.389144184140428 0.468900500430271 2.521000000000000
-0.389144184140428 0.475809507627040 2.521000000000000
-0.388681101017690 0.482144077876378 2.518000000000000
-0.388372378935865 0.488656424198243 2.516000000000000
-0.388835462058603 0.496142608924431 2.519000000000000
-0.388218017894953 0.502247332043433 2.515000000000000
-0.388372378935865 0.509342337058698 2.516000000000000
-0.387600573731303 0.515211731883383 2.511000000000000
-0.387909295813128 0.522509178209084 2.513000000000000
-0.387446212690390 0.528764271580713 2.510000000000000
-0.387754934772215 0.536069939652384 2.512000000000000
-0.388218017894953 0.543602714272403 2.515000000000000
-0.388681101017690 0.551151932384361 2.518000000000000
-0.388526739976778 0.557831092450793 2.517000000000000
-0.387909295813128 0.563831673454175 2.513000000000000
-0.387754934772215 0.570491649446676 2.512000000000000
-0.388218017894953 0.578065532796545 2.515000000000000
-0.388989823099515 0.586121035063006 2.520000000000000
-0.388526739976778 0.592321316794834 2.517000000000000
-0.388218017894953 0.598743223911030 2.515000000000000
-0.387600573731303 0.604672549782672 2.511000000000000
-0.388218017894953 0.612528351320686 2.515000000000000
-0.388063656854040 0.619174624403238 2.514000000000000
-0.387909295813128 0.625815416321810 2.513000000000000
-0.387754934772215 0.632450727076402 2.512000000000000
-0.387754934772215 0.639335069035260 2.512000000000000
-0.386828768526740 0.644675893292700 2.506000000000000
-0.387291851649477 0.652323772356297 2.509000000000000
-0.385902602281265 0.656835285541237 2.500000000000000
-0.385285158117615 0.662624841731390 2.496000000000000
-0.384513352913052 0.668124257987426 2.491000000000000
-0.385593880199440 0.676847738745800 2.498000000000000
-0.384667713953965 0.682051533903740 2.492000000000000
-0.384667713953965 0.688881064222798 2.492000000000000
-0.382815381463015 0.692360463267980 2.480000000000000
-0.381889215217540 0.697465597474280 2.474000000000000
-0.381271771053890 0.703107162236973 2.470000000000000
-0.382043576258452 0.711313396512883 2.475000000000000
-0.378801994399290 0.745630339338862 2.454000000000000
-0.378647633358377 0.758771791737693 2.453000000000000
-0.376486578785602 0.761125535098633 2.439000000000000
-0.374634246294652 0.764032152507906 2.427000000000000
-0.374325524212827 0.770048453489583 2.425000000000000
-0.374634246294652 0.777334937487325 2.427000000000000
-0.374016802131002 0.782694222305049 2.423000000000000
-0.373244996926440 0.787705814966866 2.418000000000000
-0.372781913803702 0.793347017972737 2.415000000000000
-0.372781913803702 0.799965523478566 2.415000000000000
-0.373244996926440 0.807585996722264 2.418000000000000
-0.373708080049177 0.815222913457902 2.421000000000000
-0.373399357967352 0.821178921635798 2.419000000000000
-0.372318830680964 0.825412912526104 2.412000000000000
-0.371701386517314 0.830643389990298 2.408000000000000
-0.371855747558227 0.837590403578104 2.409000000000000
-0.372010108599139 0.844542898329889 2.410000000000000
-0.371855747558227 0.850794527605882 2.409000000000000
-0.372164469640052 0.858108417423524 2.411000000000000
-0.372010108599139 0.864357306117527 2.410000000000000
-0.372164469640052 0.871323503779262 2.411000000000000
-0.371855747558227 0.877202775661439 2.409000000000000
-0.371238303394577 0.882337332755984 2.405000000000000
-0.371083942353664 0.888558815630087 2.404000000000000
-0.371083942353664 0.895147174734026 2.404000000000000
-0.371083942353664 0.901735533837966 2.404000000000000
-0.370929581312752 0.907946054384109 2.403000000000000
-0.370620859230927 0.913770514626486 2.401000000000000
-0.370620859230927 0.920350651984455 2.401000000000000
-0.370157776108189 0.925772608431126 2.398000000000000
-0.370312137149102 0.932733324928882 2.399000000000000
-0.369694692985452 0.937741815251887 2.395000000000000
-0.370003415067277 0.945094073217388 2.397000000000000
-0.369540331944539 0.950472180352219 2.394000000000000
-0.369231609862714 0.956233607208827 2.392000000000000
-0.368614165699064 0.961179064146062 2.388000000000000
-0.368151082576327 0.966507840805073 2.385000000000000
-0.368305443617239 0.973452113810889 2.386000000000000
-0.367996721535414 0.979169691355656 2.384000000000000
-0.367996721535414 0.985703238819796 2.384000000000000
-0.367533638412677 0.990988166166967 2.381000000000000
-0.367379277371764 0.997094544597491 2.380000000000000
-0.366916194249027 1.002352066124762 2.377000000000000
-0.367070555289939 1.009290857966598 2.378000000000000
-0.366916194249027 1.015380792905181 2.377000000000000
-0.367070555289939 1.022325065910997 2.378000000000000
-0.367687999453589 1.030572770673580 2.382000000000000
-0.367842360494502 1.037536227753326 2.383000000000000
-0.367533638412677 1.043190771912323 2.381000000000000
-0.367533638412677 1.049716097630493 2.381000000000000
-0.367533638412677 1.056241423348662 2.381000000000000
-0.368459804658152 1.065444867712107 2.387000000000000
-0.368768526739977 1.072884824301289 2.389000000000000
-0.369231609862714 1.080787577489956 2.392000000000000
-0.369385970903627 1.087797624463531 2.393000000000000
-0.370003415067277 1.096185098907604 2.397000000000000
-0.370620859230927 1.104594498007597 2.401000000000000
-0.371392664435489 1.113488618362996 2.406000000000000
-0.372010108599139 1.121944607356818 2.410000000000000
-0.372936274844614 1.131359076533492 2.416000000000000
-0.373244996926440 1.138922359312224 2.418000000000000
-0.373708080049177 1.146970363346360 2.421000000000000
-0.374788607335565 1.156940808910180 2.428000000000000
-0.375560412540127 1.165991142439008 2.433000000000000
-0.376795300867427 1.176514823807984 2.441000000000000
-0.377412745031077 1.185143469467176 2.445000000000000
-0.378030189194727 1.193794039782288 2.449000000000000
-0.378338911276552 1.201486129914549 2.451000000000000
-0.378493272317465 1.208696239373393 2.452000000000000
-0.378801994399290 1.216407513579584 2.454000000000000
-0.378647633358377 1.222634477617667 2.453000000000000
-0.378956355440202 1.230359454733807 2.455000000000000
-0.380036882726590 1.240614920824586 2.462000000000000
-0.380963048972065 1.250402109151899 2.468000000000000
-0.381117410012977 1.257675251996514 2.469000000000000
-0.381889215217540 1.267002384306331 2.474000000000000
-0.382197937299365 1.274812319464161 2.476000000000000
-0.383124103544840 1.284703649907094 2.482000000000000
-0.383278464585752 1.292026123227529 2.483000000000000
-0.383587186667577 1.299877167115208 2.485000000000000
-0.383741547708490 1.307213343345593 2.486000000000000
-0.385285158117615 1.319312135845168 2.496000000000000
-0.386365685404002 1.329871806536836 2.503000000000000
-0.387291851649477 1.339935793645138 2.509000000000000
-0.387291851649477 1.346811913858027 2.509000000000000
-0.387909295813128 1.355846165651738 2.513000000000000
-0.387446212690390 1.361106427760999 2.510000000000000
