# This PCD file was generated using the MATLAB® pcwrite function
# from Computer Vision Toolbox®.
# .PCD v.7 - Point Cloud Data file format
VERSION .7
FIELDS x y z
SIZE 8 8 8
TYPE F F F
COUNT 1 1 1
WIDTH 864
HEIGHT 1
VIEWPOINT 0 0 0 1 0 0 0
POINTS 864
DATA ascii
-0.531762857728297 0.765752339086728 2.331000000000000
-0.537237893586504 0.780090603640589 2.355000000000000
-0.533359743186941 0.780866857045762 2.338000000000000
-0.528797213305102 0.780539741179437 2.318000000000000
-0.529481592787378 0.787910821462046 2.321000000000000
-0.531762857728297 0.797693822180078 2.331000000000000
-0.533587869681033 0.806841731390078 2.339000000000000
-0.531990984222389 0.810818107573324 2.332000000000000
-0.526059695375999 0.808097893588682 2.306000000000000
-0.531306604740113 0.822540662014985 2.329000000000000
-0.532447237210573 0.830703046979057 2.334000000000000
-0.533359743186941 0.838534183279161 2.338000000000000
-0.531534731234205 0.842050503444912 2.330000000000000
-0.534728502151492 0.853533958551438 2.344000000000000
-0.531762857728297 0.855188491748108 2.331000000000000
-0.535412881633768 0.867490657355996 2.347000000000000
-0.534500375657400 0.872433373711241 2.343000000000000
-0.535184755139676 0.879979851241210 2.346000000000000
-0.532447237210573 0.881875193896176 2.334000000000000
-0.528112833822826 0.881040708604879 2.315000000000000
-0.529937845775562 0.890451713685918 2.323000000000000
-0.536325387610136 0.907627774154119 2.351000000000000
-0.536781640598320 0.914848484184101 2.353000000000000
-0.531762857728297 0.912683161316137 2.331000000000000
-0.526515948364183 0.910002970790877 2.308000000000000
-0.527656580834643 0.918313347182408 2.313000000000000
-0.527884707328734 0.925052076538974 2.314000000000000
-0.540887917491975 0.954336499619059 2.371000000000000
-0.546134826856089 0.970155040204338 2.394000000000000
-0.544537941397446 0.973860098770575 2.387000000000000
-0.542256676456526 0.976294612563924 2.377000000000000
-0.538150399562871 0.975366585728145 2.359000000000000
-0.537466020080596 0.980582998525567 2.356000000000000
-0.541344170480159 0.994161913583969 2.373000000000000
-0.541116043986066 1.000243626776582 2.372000000000000
-0.541344170480159 1.007168715708468 2.373000000000000
-0.541344170480159 1.013672116770717 2.373000000000000
-0.542484802950618 1.022325065910997 2.378000000000000
-0.543169182432894 1.030140120475984 2.381000000000000
-0.543169182432894 1.036665446194154 2.381000000000000
-0.543397308926986 1.043628903273899 2.382000000000000
-0.543853561915170 1.051038713461190 2.384000000000000
-0.544766067891537 1.059346711027554 2.388000000000000
-0.544537941397446 1.065444867712107 2.387000000000000
-0.544537941397446 1.071986636922217 2.387000000000000
-0.544766067891537 1.078980240403852 2.388000000000000
-0.544766067891537 1.085524750195952 2.388000000000000
-0.544081688409262 1.090697313681533 2.385000000000000
-0.543625435421078 1.096313489692671 2.383000000000000
-0.543397308926986 1.102381499975335 2.382000000000000
-0.543169182432894 1.108444029094018 2.381000000000000
-0.542941055938802 1.114501077048722 2.380000000000000
-0.542712929444710 1.120552643839446 2.379000000000000
-0.542484802950618 1.126598729466189 2.378000000000000
-0.541800423468342 1.131686334910081 2.375000000000000
-0.541116043986066 1.136757496862034 2.372000000000000
-0.540887917491975 1.142776176668877 2.371000000000000
-0.540659790997883 1.148789375311741 2.370000000000000
-0.540203538009699 1.154309630953229 2.368000000000000
-0.539747285021515 1.159818924266757 2.366000000000000
-0.539747285021515 1.166303141255077 2.366000000000000
-0.540203538009699 1.173778725410128 2.368000000000000
-0.540203538009699 1.180268423562427 2.368000000000000
-0.539975411515607 1.186256956967382 2.367000000000000
-0.539062905539239 1.190728293220348 2.363000000000000
-0.538150399562871 1.195177704817395 2.359000000000000
-0.539519158527423 1.204699056691679 2.365000000000000
-0.539519158527423 1.211180533098009 2.365000000000000
-0.539975411515607 1.218691744818930 2.367000000000000
-0.539062905539239 1.223108269432096 2.363000000000000
-0.539747285021515 1.231145311138273 2.366000000000000
-0.540203538009699 1.238675706933124 2.368000000000000
-0.540887917491975 1.246742895041191 2.371000000000000
-0.542712929444710 1.257469379477426 2.379000000000000
-0.544309814903354 1.267708402076265 2.386000000000000
-0.589406461307288 -0.445276552128610 2.615000000000000
-0.578587528174305 -0.430068141830599 2.567000000000000
-0.587603305785124 -0.422480237663270 2.607000000000000
-0.588504883546206 -0.415972802464331 2.611000000000000
-0.589631855747558 -0.409600017539725 2.616000000000000
-0.589406461307288 -0.402276820705645 2.615000000000000
-0.590533433508640 -0.395865667633179 2.620000000000000
-0.591435011269722 -0.389278755556530 2.624000000000000
-0.589406461307288 -0.380776954994163 2.615000000000000
-0.586476333583772 -0.371752996826406 2.602000000000000
-0.589406461307288 -0.366443711186508 2.615000000000000
-0.591885800150263 -0.360788388702225 2.626000000000000
-0.600000000000000 -0.358439030272469 2.662000000000000
-0.599323816679189 -0.350747871938085 2.659000000000000
-0.592787377911345 -0.339714760226482 2.630000000000000
-0.590308039068370 -0.331116315780819 2.619000000000000
-0.589631855747558 -0.323567667709915 2.616000000000000
-0.588279489105935 -0.315672621037804 2.610000000000000
-0.586476333583772 -0.307574047784788 2.602000000000000
-0.586250939143501 -0.300327587246428 2.601000000000000
-0.587152516904583 -0.293650235964109 2.605000000000000
-0.587828700225394 -0.286840974989449 2.608000000000000
-0.589631855747558 -0.280551492795010 2.616000000000000
-0.583996994740796 -0.270769533498134 2.591000000000000
-0.584898572501878 -0.264075738723875 2.595000000000000
-0.575432006010518 -0.252804974704428 2.553000000000000
-0.576558978211871 -0.246289679516342 2.558000000000000
-0.590533433508640 -0.245078846543852 2.620000000000000
-0.583996994740796 -0.235265293817795 2.591000000000000
-0.586476333583772 -0.229133110067254 2.602000000000000
-0.581517655897821 -0.220125080162023 2.580000000000000
-0.576784372652141 -0.211320215080875 2.559000000000000
-0.583095416979715 -0.206542547535395 2.587000000000000
-0.589857250187829 -0.201765603503560 2.617000000000000
-0.579489105935387 -0.177080984197804 2.571000000000000
-0.570698722764839 -0.167455654642820 2.532000000000000
-0.572276483846732 -0.154001929369721 2.539000000000000
-0.566190833959429 -0.145479914274595 2.512000000000000
-0.558302028549962 -0.136664503433949 2.477000000000000
-0.562359128474831 -0.130819872508126 2.495000000000000
-0.562359128474831 -0.123982120443097 2.495000000000000
-0.562359128474831 -0.117144368378069 2.495000000000000
-0.567993989481593 -0.111411893029604 2.520000000000000
-0.568219383921863 -0.104547096901498 2.521000000000000
-0.557851239669422 -0.095856514089332 2.475000000000000
-0.557851239669422 -0.089073573664103 2.475000000000000
-0.556724267468069 -0.082124389535362 2.470000000000000
-0.554695717505635 -0.075080578591670 2.461000000000000
-0.551765589782119 -0.067975027816907 2.448000000000000
-0.560781367392938 -0.062267162894712 2.488000000000000
-0.558752817430503 -0.055248017188930 2.479000000000000
-0.572501878287002 -0.049646410111651 2.540000000000000
-0.566190833959429 -0.042214784891720 2.512000000000000
-0.571149511645379 -0.035639865601859 2.534000000000000
-0.555597295266717 -0.021158334383890 2.465000000000000
-0.550864012021037 -0.014280098441705 2.444000000000000
-0.564838467317806 -0.000906562597633 2.506000000000000
-0.558978211870774 0.005899486414935 2.480000000000000
-0.563936889556724 0.019665692846533 2.502000000000000
-0.563035311795642 0.026480226700942 2.498000000000000
-0.555371900826446 0.032872601305613 2.464000000000000
-0.559203606311044 0.039898784825946 2.481000000000000
-0.555597295266717 0.046397011669398 2.465000000000000
-0.554019534184824 0.053001605981046 2.458000000000000
-0.555597295266717 0.059908080880056 2.465000000000000
-0.561006761833208 0.067312672999238 2.489000000000000
-0.558302028549962 0.073776565831520 2.477000000000000
-0.551540195341848 0.079589230609012 2.447000000000000
-0.554695717505635 0.086789156065182 2.461000000000000
-0.547483095416980 0.092317523829360 2.429000000000000
-0.553343350864012 0.100033818781756 2.455000000000000
-0.553343350864012 0.106761947567185 2.455000000000000
-0.540946656649136 0.117524925593199 2.400000000000000
-0.543425995492111 0.124671124680037 2.411000000000000
-0.541397445529677 0.130788618911112 2.402000000000000
-0.541848234410218 0.137485877781006 2.404000000000000
-0.536889556724268 0.142755753851888 2.382000000000000
-0.539819684447784 0.163225939060419 2.395000000000000
-0.542299023290759 0.170569460050536 2.406000000000000
-0.547933884297521 0.179004149241133 2.431000000000000
-0.551314800901578 0.186812122142258 2.446000000000000
-0.546581517655898 0.191854168151149 2.425000000000000
-0.545454545454546 0.198090800962492 2.420000000000000
-0.548159278737791 0.205738164796676 2.432000000000000
-0.544552967693464 0.211005870326623 2.416000000000000
-0.543425995492111 0.217176729170207 2.411000000000000
-0.543651389932382 0.223877090378913 2.412000000000000
-0.543876784372652 0.230582932751599 2.413000000000000
-0.540495867768595 0.235721469171193 2.398000000000000
-0.540045078888054 0.242091305229579 2.396000000000000
-0.538692712246431 0.248035057524816 2.390000000000000
-0.542073628850488 0.256182862592700 2.405000000000000
-0.541622839969947 0.262555439233076 2.403000000000000
-0.540270473328325 0.268469045126423 2.397000000000000
-0.533734034560481 0.271710682240481 2.368000000000000
-0.532607062359128 0.277612964049045 2.363000000000000
-0.538241923365890 0.287094555559819 2.388000000000000
-0.541397445529677 0.295360567410095 2.402000000000000
-0.540270473328325 0.301314920276470 2.397000000000000
-0.537791134485349 0.306471193742703 2.386000000000000
-0.536438767843727 0.312223105298641 2.380000000000000
-0.536438767843727 0.318745690434821 2.380000000000000
-0.536889556724268 0.325541610256354 2.382000000000000
-0.537340345604808 0.332348492405847 2.384000000000000
-0.537340345604808 0.338882039869987 2.384000000000000
-0.537791134485349 0.345705365511420 2.386000000000000
-0.537565740045079 0.352096764468903 2.385000000000000
-0.536664162283997 0.358031571504525 2.381000000000000
-0.536438767843727 0.364403786388077 2.380000000000000
-0.536889556724268 0.371238074357471 2.382000000000000
-0.537565740045079 0.378241916653421 2.385000000000000
-0.536889556724268 0.384294206957790 2.382000000000000
-0.536664162283997 0.390658200095372 2.381000000000000
-0.536889556724268 0.397350339558109 2.382000000000000
-0.538016528925620 0.404726177491052 2.387000000000000
-0.538918106686702 0.411957126335349 2.391000000000000
-0.536664162283997 0.416759502968050 2.381000000000000
-0.533959429000751 0.421151515815899 2.369000000000000
-0.534861006761833 0.428366021168255 2.373000000000000
-0.534861006761833 0.434869422230505 2.373000000000000
-0.536438767843727 0.442674808022232 2.380000000000000
-0.535086401202104 0.448064962755491 2.374000000000000
-0.535762584522915 0.455145541347160 2.377000000000000
-0.540270473328325 0.465544296026704 2.397000000000000
-0.531930879038317 0.464825945637816 2.360000000000000
-0.534861006761833 0.473889828604002 2.373000000000000
-0.538692712246431 0.483834731943676 2.390000000000000
-0.540946656649136 0.492436541824022 2.400000000000000
-0.544102178812923 0.501924853241834 2.414000000000000
-0.544327573253193 0.508751281222080 2.415000000000000
-0.542975206611570 0.514089364897530 2.409000000000000
-0.544778362133734 0.522420580674512 2.417000000000000
-0.542073628850488 0.526417949715802 2.405000000000000
-0.542524417731029 0.533452300170464 2.407000000000000
-0.539368895567243 0.536907757491381 2.393000000000000
-0.540495867768595 0.544601502935163 2.398000000000000
-0.542524417731029 0.553242042720192 2.407000000000000
-0.539368895567243 0.556582395597529 2.393000000000000
-0.536664162283997 0.560316668767780 2.381000000000000
-0.539143501126972 0.569460752125321 2.392000000000000
-0.540495867768595 0.577461080995160 2.398000000000000
-0.539594290007513 0.583058796446013 2.394000000000000
-0.540045078888054 0.590112330974606 2.396000000000000
-0.539143501126972 0.595682640605559 2.392000000000000
-0.539594290007513 0.602741656298131 2.394000000000000
-0.539143501126972 0.608793584845678 2.392000000000000
-0.538692712246431 0.614834551065264 2.390000000000000
-0.535311795642374 0.617484639037946 2.375000000000000
-0.534184823441022 0.622679850693093 2.370000000000000
-0.531930879038317 0.626520283047308 2.360000000000000
-0.534184823441022 0.635670209325652 2.370000000000000
-0.526972201352367 0.633494801115965 2.338000000000000
-0.535537190082645 0.650302746611270 2.376000000000000
-0.533508640120210 0.654326436201992 2.367000000000000
-0.529451540195342 0.655788196861485 2.349000000000000
-0.526972201352367 0.659124723886364 2.338000000000000
-0.530803906836965 0.670371403671284 2.355000000000000
-0.530803906836965 0.676825474257713 2.355000000000000
-0.531029301277235 0.683569684778259 2.356000000000000
-0.530578512396694 0.689440734914466 2.354000000000000
-0.530578512396694 0.695892064918906 2.354000000000000
-0.530353117956424 0.702045033243260 2.353000000000000
-0.531029301277235 0.709396929451938 2.356000000000000
-0.531480090157776 0.716461426308491 2.358000000000000
-0.531480090157776 0.722923718640891 2.358000000000000
-0.531254695717506 0.729076686965244 2.357000000000000
-0.528324567993990 0.731479399045181 2.344000000000000
-0.525845229151014 0.734440466337431 2.333000000000000
-0.529000751314801 0.745279884676310 2.347000000000000
-0.531705484598047 0.755555466638895 2.359000000000000
-0.526972201352367 0.755236934275363 2.338000000000000
-0.522689706987228 0.755454832468223 2.319000000000000
-0.525619834710744 0.766080847168705 2.332000000000000
-0.526296018031555 0.773465630361263 2.335000000000000
-0.526521412471826 0.780198878553850 2.336000000000000
-0.522915101427498 0.781213200835329 2.320000000000000
-0.525394440270473 0.791305525561408 2.331000000000000
-0.525619834710744 0.798036033172004 2.332000000000000
-0.527648384673178 0.807531634537910 2.341000000000000
-0.527197595792637 0.813251952664668 2.339000000000000
-0.525845229151014 0.817559577511880 2.333000000000000
-0.522689706987228 0.819008928816123 2.319000000000000
-0.526296018031555 0.831058960880933 2.335000000000000
-0.527422990232908 0.839251492246893 2.340000000000000
-0.530353117956424 0.850362589959604 2.353000000000000
-0.528775356874530 0.854262229847130 2.346000000000000
-0.532381667918858 0.866561654873029 2.362000000000000
-0.529451540195342 0.868229890979648 2.349000000000000
-0.527873779113449 0.872061016317425 2.342000000000000
-0.527422990232908 0.877729263386373 2.340000000000000
-0.524718256949662 0.879608162549399 2.328000000000000
-0.522464312546957 0.882182446024238 2.318000000000000
-0.525169045830203 0.893134951738351 2.330000000000000
-0.525845229151014 0.900678688686329 2.333000000000000
-0.525394440270473 0.906294864697467 2.331000000000000
-0.522238918106687 0.907201580767692 2.317000000000000
-0.521562734785875 0.912368663089294 2.314000000000000
-0.519759579263712 0.915534188760325 2.306000000000000
-0.527197595792637 0.935046156881875 2.339000000000000
-0.530578512396694 0.947493935092056 2.354000000000000
-0.533734034560481 0.959618686384240 2.368000000000000
-0.529676934635612 0.958764655262191 2.350000000000000
-0.527197595792637 0.960687041980235 2.339000000000000
-0.530578512396694 0.973299255109815 2.354000000000000
-0.529000751314801 0.976837138174663 2.347000000000000
-0.531930879038317 0.988715598844570 2.360000000000000
-0.532832456799399 0.996870123819494 2.364000000000000
-0.533057851239670 1.003773288095460 2.365000000000000
-0.533283245679940 1.010681933535405 2.366000000000000
-0.534410217881292 1.019315698601755 2.371000000000000
-0.535086401202104 1.027111569092813 2.374000000000000
-0.535537190082645 1.034488492296224 2.376000000000000
-0.536213373403456 1.042314509189171 2.379000000000000
-0.536889556724268 1.050156969574059 2.382000000000000
-0.537340345604808 1.057572260925330 2.384000000000000
-0.536664162283997 1.062766749066832 2.381000000000000
-0.536664162283997 1.069292074785001 2.381000000000000
-0.536889556724268 1.076269234774697 2.382000000000000
-0.537114951164538 1.083251875928372 2.383000000000000
-0.536889556724268 1.089325367375016 2.382000000000000
-0.535987978963186 1.094013209605192 2.378000000000000
-0.535762584522915 1.100067516977906 2.377000000000000
-0.535311795642374 1.105650806005163 2.375000000000000
-0.534861006761833 1.111223132704461 2.373000000000000
-0.534410217881292 1.116784497075799 2.371000000000000
-0.534410217881292 1.123282416974068 2.371000000000000
-0.534184823441022 1.129303837362902 2.370000000000000
-0.534184823441022 1.135799016679182 2.370000000000000
-0.533959429000751 1.141812215322046 2.369000000000000
-0.533508640120210 1.147335211545524 2.367000000000000
-0.532607062359128 1.151872321766250 2.363000000000000
-0.532156273478588 1.157367912169828 2.361000000000000
-0.531705484598047 1.162852540245446 2.359000000000000
-0.532156273478588 1.170308940326568 2.361000000000000
-0.531705484598047 1.175782606074226 2.359000000000000
-0.530803906836965 1.180242979999232 2.355000000000000
-0.529902329075883 1.184681429268319 2.351000000000000
-0.529451540195342 1.190111245704138 2.349000000000000
-0.530578512396694 1.199095805265206 2.354000000000000
-0.530127723516153 1.204522881119034 2.352000000000000
-0.530353117956424 1.211483597616790 2.353000000000000
-0.529902329075883 1.216896970560668 2.351000000000000
-0.530578512396694 1.224901125282965 2.354000000000000
-0.530353117956424 1.230829365884139 2.353000000000000
-0.530353117956424 1.237277955306589 2.353000000000000
-0.530803906836965 1.244783685863530 2.355000000000000
-0.531480090157776 1.252831689897667 2.358000000000000
-0.531254695717506 1.258759930498841 2.357000000000000
-0.535311795642374 1.274881743887132 2.375000000000000
-0.589164674544089 -0.443303585229359 2.646000000000000
-0.581371491018373 -0.423128462040199 2.611000000000000
-0.582039478177720 -0.416450749001058 2.614000000000000
-0.586047401133802 -0.412105216423760 2.632000000000000
-0.582930127723516 -0.402738323750432 2.618000000000000
-0.583152790109965 -0.395714573866906 2.619000000000000
-0.586492725906700 -0.390762287399352 2.634000000000000
-0.586938050679598 -0.383834819642299 2.636000000000000
-0.586938050679598 -0.376610645516682 2.636000000000000
-0.579812854313230 -0.357765789863135 2.604000000000000
-0.588719349771191 -0.356015325334488 2.644000000000000
-0.574914281811352 -0.340590825627730 2.582000000000000
-0.581148828631924 -0.337131378019436 2.610000000000000
-0.584711426815108 -0.332001315479355 2.626000000000000
-0.583598114882863 -0.324186107441776 2.621000000000000
-0.583375452496414 -0.316882094681627 2.620000000000000
-0.581148828631924 -0.308519702043926 2.610000000000000
-0.580480841472577 -0.301020384448842 2.607000000000000
-0.578699542380985 -0.292973882253635 2.599000000000000
-0.579590191926781 -0.286291049807337 2.603000000000000
-0.584934089201557 -0.281731181793766 2.627000000000000
-0.583152790109965 -0.273695641926520 2.619000000000000
-0.576695580902944 -0.263566922271614 2.590000000000000
-0.572687657946862 -0.254686406165213 2.572000000000000
-0.575804931357148 -0.248985579057569 2.586000000000000
-0.588274024998292 -0.247136760522465 2.642000000000000
-0.575804931357148 -0.227724143979215 2.586000000000000
-0.571574346014617 -0.219015922781362 2.567000000000000
-0.576918243289393 -0.213962750009592 2.591000000000000
-0.574468957038454 -0.205983677093668 2.580000000000000
-0.576027593743597 -0.192362776319179 2.587000000000000
-0.558659927600574 -0.179686773403200 2.509000000000000
-0.565117136807595 -0.174808066080913 2.538000000000000
-0.564894474421146 -0.167786333265732 2.537000000000000
-0.553316030325797 -0.157536929342315 2.485000000000000
-0.563113175329554 -0.153395383763696 2.529000000000000
-0.566007786353391 -0.140250774214412 2.542000000000000
-0.552870705552900 -0.130190678732536 2.483000000000000
-0.558214602827676 -0.124578427234808 2.507000000000000
-0.559995901919268 -0.118083401391119 2.515000000000000
-0.560886551465064 -0.111367681960941 2.519000000000000
-0.567343760672085 -0.105666800041657 2.548000000000000
-0.556210641349635 -0.096747301897031 2.498000000000000
-0.547081483505225 -0.088425765855637 2.457000000000000
-0.548640120210368 -0.081924897091146 2.464000000000000
-0.547972133051021 -0.075080578591670 2.461000000000000
-0.549976094529062 -0.068585914504804 2.470000000000000
-0.549753432142613 -0.061791649994793 2.469000000000000
-0.555987978963186 -0.055649172618297 2.497000000000000
-0.562222525783758 -0.049353222650362 2.525000000000000
-0.556878628508982 -0.042029927155331 2.501000000000000
-0.551534731234205 -0.034838179595819 2.477000000000000
-0.570906358855270 -0.029034953382700 2.564000000000000
-0.554874667030941 -0.021390088959291 2.492000000000000
-0.551757393620654 -0.000896433406598 2.478000000000000
-0.544186872481388 0.005813848708912 2.444000000000000
-0.537284338501469 0.012353129470574 2.413000000000000
-0.556655966122533 0.026501427843217 2.500000000000000
-0.548194795437470 0.032845918999359 2.462000000000000
-0.548862782596817 0.039641477064069 2.465000000000000
-0.548194795437470 0.046340544718076 2.462000000000000
-0.542850898162694 0.052570347999101 2.438000000000000
-0.547749470664572 0.059786563474619 2.460000000000000
-0.550198756915511 0.066825879863848 2.471000000000000
-0.547526808278123 0.073240442220310 2.459000000000000
-0.545300184413633 0.079654281063127 2.449000000000000
-0.544409534867837 0.086224903120427 2.445000000000000
-0.542405573389796 0.092583568566621 2.436000000000000
-0.533944402704733 0.097711241319207 2.398000000000000
-0.541514923844000 0.105761733801790 2.432000000000000
-0.542628235776245 0.112657969886485 2.437000000000000
-0.543741547708490 0.119581611791080 2.442000000000000
-0.527932518270610 0.122602752640551 2.371000000000000
-0.540846936684653 0.132258765751495 2.429000000000000
-0.534612389864080 0.137314306386104 2.401000000000000
-0.540401611911755 0.145452650964959 2.427000000000000
-0.524815244860324 0.154176581178779 2.357000000000000
-0.522365958609385 0.159886452206991 2.346000000000000
-0.534835052250529 0.170285886550868 2.402000000000000
-0.539733624752408 0.178488711542783 2.424000000000000
-0.535057714636978 0.183528016969684 2.403000000000000
-0.539288299979510 0.191616822788487 2.422000000000000
-0.543073560549143 0.199646059317157 2.439000000000000
-0.542182911003347 0.205991953651277 2.435000000000000
-0.539065637593061 0.211442554660908 2.421000000000000
-0.534167065091182 0.216095799784042 2.399000000000000
-0.533721740318284 0.222484819916357 2.397000000000000
-0.537507000887918 0.230678491364426 2.414000000000000
-0.533276415545386 0.235426571586742 2.395000000000000
-0.530604466907998 0.240777788131087 2.383000000000000
-0.536171026569223 0.249903103983162 2.408000000000000
-0.534835052250529 0.255863299770339 2.402000000000000
-0.534612389864080 0.262336916187522 2.401000000000000
-0.532608428386039 0.267909034602588 2.392000000000000
-0.525705894406120 0.270907483433182 2.361000000000000
-0.525705894406120 0.277377997511552 2.361000000000000
-0.529713817362202 0.286012540903186 2.379000000000000
-0.532608428386039 0.294130923082826 2.392000000000000
-0.531940441226692 0.300309280158734 2.389000000000000
-0.529936479748651 0.305700520162462 2.380000000000000
-0.529045830202855 0.311698360583854 2.376000000000000
-0.529045830202855 0.318209983392073 2.376000000000000
-0.529713817362202 0.325131608228323 2.379000000000000
-0.529936479748651 0.331790860707180 2.380000000000000
-0.529713817362202 0.338171297336702 2.379000000000000
-0.529713817362202 0.344691141890892 2.379000000000000
-0.529713817362202 0.351210986445081 2.379000000000000
-0.529045830202855 0.357279720241390 2.376000000000000
-0.529045830202855 0.363791343049610 2.376000000000000
-0.529491154975753 0.370614668691043 2.378000000000000
-0.530381804521549 0.377766140657630 2.382000000000000
-0.529713817362202 0.383810209216029 2.379000000000000
-0.530381804521549 0.390822273257949 2.382000000000000
-0.529936479748651 0.397016712068975 2.380000000000000
-0.532608428386039 0.405573949123836 2.392000000000000
-0.529268492589304 0.409544997615694 2.377000000000000
-0.528377843043508 0.415359219043756 2.373000000000000
-0.525705894406120 0.419729307235685 2.361000000000000
-0.528155180657059 0.428185504513738 2.372000000000000
-0.529713817362202 0.435968965649545 2.379000000000000
-0.533053753158937 0.445278777481186 2.394000000000000
-0.531717778840243 0.450707300362305 2.388000000000000
-0.527041868724814 0.453230751522393 2.367000000000000
-0.520807321904242 0.454279561287635 2.339000000000000
-0.527264531111263 0.466401626809469 2.368000000000000
-0.526151219179018 0.471892821319535 2.363000000000000
-0.528823167816406 0.480798112287125 2.375000000000000
-0.533944402704733 0.492026178039168 2.398000000000000
-0.535057714636978 0.499637706023251 2.403000000000000
-0.531940441226692 0.503274041755507 2.389000000000000
-0.532163103613141 0.510034695767993 2.390000000000000
-0.536171026569223 0.520475282691032 2.408000000000000
-0.536839013728570 0.527731258530061 2.411000000000000
-0.533499077931835 0.531014420942431 2.396000000000000
-0.531049791680896 0.535112829760528 2.385000000000000
-0.533499077931835 0.544147289838470 2.396000000000000
-0.534612389864080 0.551862959938172 2.401000000000000
-0.533721740318284 0.557512746446835 2.397000000000000
-0.527487193497712 0.557492729235980 2.369000000000000
-0.533053753158937 0.569936889877934 2.394000000000000
-0.535948364182774 0.579628366119829 2.407000000000000
-0.537061676115020 0.587442697171171 2.412000000000000
-0.537729663274367 0.594791852797860 2.415000000000000
-0.533499077931835 0.596678765422625 2.396000000000000
-0.530381804521549 0.599720394863053 2.382000000000000
-0.529936479748651 0.605739436426719 2.380000000000000
-0.530381804521549 0.612776527463372 2.382000000000000
-0.531272454067345 0.620344567892438 2.386000000000000
-0.531495116453794 0.627146330634774 2.387000000000000
-0.525705894406120 0.626785757743514 2.361000000000000
-0.522588620995834 0.629501257927133 2.347000000000000
-0.527487193497712 0.641894432781746 2.369000000000000
-0.528155180657059 0.649207960842564 2.372000000000000
-0.526151219179018 0.653220688105326 2.363000000000000
-0.522143296222936 0.654671486436860 2.345000000000000
-0.522143296222936 0.661098151203390 2.345000000000000
-0.521697971450038 0.666955498429646 2.343000000000000
-0.523479270541630 0.675675876849208 2.351000000000000
-0.524147257700977 0.682989404910027 2.354000000000000
-0.524815244860324 0.690319376462786 2.357000000000000
-0.523701932928079 0.695300822722713 2.352000000000000
-0.523479270541630 0.701448309883087 2.351000000000000
-0.523701932928079 0.708192520403633 2.352000000000000
-0.524369920087426 0.715549897776292 2.355000000000000
-0.523479270541630 0.720777634658496 2.351000000000000
-0.521920633836487 0.725055474860641 2.344000000000000
-0.519916672358446 0.728670817734854 2.335000000000000
-0.520584659517793 0.736014492197563 2.338000000000000
-0.521029984290690 0.743057064398195 2.340000000000000
-0.525483232019671 0.755875752974902 2.360000000000000
-0.520584659517793 0.755236934275363 2.338000000000000
-0.519694009971996 0.760341344968017 2.334000000000000
-0.519248685199098 0.766080847168705 2.332000000000000
-0.518135373266853 0.770815641049533 2.327000000000000
-0.516354074175261 0.774521061372593 2.319000000000000
-0.523924595314528 0.792325285157556 2.353000000000000
-0.524147257700977 0.799113344989942 2.354000000000000
-0.523256608155181 0.804195831026677 2.350000000000000
-0.522588620995834 0.809601343981408 2.347000000000000
-0.519248685199098 0.810818107573324 2.332000000000000
-0.515686087015914 0.811602220967644 2.316000000000000
-0.517690048493955 0.821127968735441 2.325000000000000
-0.517690048493955 0.827499821862171 2.325000000000000
-0.522143296222936 0.841044764666225 2.345000000000000
-0.523479270541630 0.849639799827891 2.351000000000000
-0.523924595314528 0.856811179382054 2.353000000000000
-0.521920633836487 0.859957882735978 2.344000000000000
-0.521029984290690 0.864903339673213 2.340000000000000
-0.519916672358446 0.869454514560712 2.335000000000000
-0.519694009971996 0.875478675531536 2.334000000000000
-0.521252646677140 0.884520063800749 2.341000000000000
-0.518803360426200 0.886749395701671 2.330000000000000
-0.517912710880404 0.891601672851247 2.326000000000000
-0.512791475992077 0.889096879573346 2.303000000000000
-0.519471347585548 0.907072466468979 2.333000000000000
-0.517022061334608 0.909159288106422 2.322000000000000
-0.517690048493955 0.916705765636391 2.325000000000000
-0.519248685199098 0.925856777185203 2.332000000000000
-0.520139334744894 0.933846867240727 2.336000000000000
-0.520139334744894 0.940248866769347 2.336000000000000
-0.519694009971996 0.945840377542575 2.334000000000000
-0.516576736561710 0.946525106471610 2.320000000000000
-0.520139334744894 0.959454865355207 2.336000000000000
-0.523033945768732 0.971231924491485 2.349000000000000
-0.525260569633222 0.981831618642535 2.359000000000000
-0.525928556792569 0.989553493419863 2.362000000000000
-0.525483232019671 0.995183372340950 2.360000000000000
-0.525928556792569 1.002500002740582 2.362000000000000
-0.526373881565467 1.009827595468173 2.364000000000000
-0.527264531111263 1.018025969754937 2.368000000000000
-0.527709855884161 1.025380968302429 2.370000000000000
-0.528155180657059 1.032746929177880 2.372000000000000
-0.528823167816406 1.040561983742867 2.375000000000000
-0.529713817362202 1.048834353743361 2.379000000000000
-0.529713817362202 1.055354198297551 2.379000000000000
-0.528823167816406 1.060088630421556 2.375000000000000
-0.528377843043508 1.065699325268714 2.373000000000000
-0.528823167816406 1.073106394874015 2.375000000000000
-0.529491154975753 1.080979001660793 2.378000000000000
-0.529268492589304 1.087038790197486 2.377000000000000
-0.528600505429957 1.092172985535208 2.374000000000000
-0.528155180657059 1.097753533980476 2.372000000000000
-0.528377843043508 1.104719731642211 2.373000000000000
-0.527709855884161 1.109818299414064 2.370000000000000
-0.527264531111263 1.115371442039431 2.368000000000000
-0.526819206338365 1.120913622336839 2.366000000000000
-0.526596543951916 1.126921339815723 2.365000000000000
-0.526596543951916 1.133402816222053 2.365000000000000
-0.526151219179018 1.138920331281551 2.363000000000000
-0.526151219179018 1.145396326523900 2.363000000000000
-0.525037907246773 1.149435012579271 2.358000000000000
-0.524369920087426 1.154426697653514 2.355000000000000
-0.523701932928079 1.159401939235816 2.352000000000000
-0.523701932928079 1.165847788076276 2.352000000000000
-0.523256608155181 1.171296788586024 2.350000000000000
-0.523033945768732 1.177235991515158 2.349000000000000
-0.522143296222936 1.181657997292305 2.345000000000000
-0.521475309063589 1.186564724324857 2.342000000000000
-0.521697971450038 1.193492553838733 2.343000000000000
-0.521029984290690 1.198377356215366 2.340000000000000
-0.520584659517793 1.203760582757354 2.338000000000000
-0.520139334744894 1.209132846971383 2.336000000000000
-0.520361997131344 1.216055195321278 2.337000000000000
-0.520361997131344 1.222459935431888 2.337000000000000
-0.520807321904242 1.229916335513009 2.339000000000000
-0.520807321904242 1.236326556787599 2.339000000000000
-0.520361997131344 1.241674155763718 2.337000000000000
-0.519916672358446 1.247010792411877 2.335000000000000
-0.521029984290690 1.256094012924584 2.340000000000000
-0.521920633836487 1.264665106361987 2.344000000000000
-0.524147257700977 1.276511765318483 2.354000000000000
-0.526373881565467 1.288413235914779 2.364000000000000
-0.565339799194044 1.432499059980377 2.539000000000000
-0.566230448739840 1.441725152513388 2.543000000000000
-0.567789085444983 1.452682207593605 2.550000000000000
-0.576877262482071 -0.432261681730732 2.623000000000000
-0.573138446827402 -0.422318181569038 2.606000000000000
-0.574238098490540 -0.415972802464331 2.611000000000000
-0.575777610818933 -0.409913167400229 2.618000000000000
-0.579296496140974 -0.405199673322627 2.634000000000000
-0.579076565808346 -0.397829886594717 2.633000000000000
-0.574897889488423 -0.387795223713708 2.614000000000000
-0.579956287138857 -0.383980432244591 2.637000000000000
-0.578416774810464 -0.375753413394869 2.630000000000000
-0.575557680486306 -0.366723974063132 2.617000000000000
-0.573798237825285 -0.351302565732859 2.609000000000000
-0.569619561505362 -0.341646103166468 2.590000000000000
-0.573798237825285 -0.337002208909084 2.609000000000000
-0.576437401816816 -0.331369172837544 2.621000000000000
-0.575777610818933 -0.323815043602659 2.618000000000000
-0.577097192814699 -0.317365884139156 2.624000000000000
-0.575557680486306 -0.309347149520672 2.617000000000000
-0.576657332149443 -0.302752377454876 2.622000000000000
-0.575337750153678 -0.294890217766645 2.616000000000000
-0.577317123147326 -0.288710720608628 2.625000000000000
-0.579516426473602 -0.282589137429225 2.635000000000000
-0.574897889488423 -0.273173122564308 2.614000000000000
-0.584354893791408 -0.270385062731922 2.657000000000000
-0.582375520797760 -0.262212132008353 2.648000000000000
-0.577976914145209 -0.253029428369409 2.628000000000000
-0.566760467181204 -0.226931600554694 2.577000000000000
-0.566320606515949 -0.219698481169461 2.575000000000000
-0.557963253876101 -0.209503472317381 2.537000000000000
-0.563681442524418 -0.197602308666268 2.563000000000000
-0.561702069530770 -0.175910086986072 2.554000000000000
-0.557083532545591 -0.167521790367402 2.533000000000000
-0.555324089884571 -0.153152765521286 2.525000000000000
-0.551145413564647 -0.145132430402920 2.506000000000000
-0.549385970903627 -0.137823144763022 2.498000000000000
-0.553784577556178 -0.132025827244674 2.518000000000000
-0.558183184208729 -0.126118886446726 2.538000000000000
-0.563901372857045 -0.120384032273094 2.564000000000000
-0.545427224916331 -0.109643450283102 2.480000000000000
-0.546526876579469 -0.103054159381286 2.485000000000000
-0.547406597909979 -0.096398732754888 2.489000000000000
-0.547626528242606 -0.089613413504492 2.490000000000000
-0.544547503585821 -0.082323881979577 2.476000000000000
-0.544327573253193 -0.075507692813646 2.475000000000000
-0.542788060924800 -0.068530379351359 2.468000000000000
-0.547186667577351 -0.062267162894712 2.488000000000000
-0.550485622566765 -0.055782891094753 2.503000000000000
-0.554004507888806 -0.049235947665846 2.519000000000000
-0.545867085581586 -0.041710627428841 2.482000000000000
-0.552904856225668 -0.028468749143568 2.514000000000000
-0.540368827265897 -0.021089666361549 2.457000000000000
-0.538169523939622 -0.014297627204113 2.447000000000000
-0.539269175602759 -0.007606934768668 2.452000000000000
-0.543447851922683 -0.000893901108840 2.471000000000000
-0.535970220613346 0.005797196932741 2.437000000000000
-0.533331056621816 0.012414562356462 2.425000000000000
-0.542348200259545 0.019382733237230 2.466000000000000
-0.539928966600642 0.026024402142039 2.455000000000000
-0.533331056621816 0.032352296333649 2.425000000000000
-0.538829314937504 0.039400251037310 2.450000000000000
-0.539269175602759 0.046152321547004 2.452000000000000
-0.529152380301892 0.051880335227989 2.406000000000000
-0.540148896933270 0.073151088285108 2.456000000000000
-0.537509732941739 0.079491654927840 2.444000000000000
-0.533550986954443 0.085554852748530 2.426000000000000
-0.531351683628168 0.091823440745877 2.416000000000000
-0.532011474626050 0.098566927752778 2.419000000000000
-0.536190150945974 0.106022659131893 2.438000000000000
-0.536630011611229 0.112796654297507 2.440000000000000
-0.544327573253193 0.121197579517986 2.475000000000000
-0.537509732941739 0.126377531612613 2.444000000000000
-0.529592240967147 0.131115318208975 2.408000000000000
-0.530691892630285 0.138000591965710 2.413000000000000
-0.534430708284953 0.145632444105830 2.430000000000000
-0.530691892630285 0.157839664991258 2.413000000000000
-0.525633494979851 0.162885175095783 2.390000000000000
-0.526953076975616 0.169860526301365 2.396000000000000
-0.530911822962912 0.177752371973712 2.414000000000000
-0.527612867973499 0.183222518814095 2.399000000000000
-0.529152380301892 0.190350980854294 2.406000000000000
-0.529372310634520 0.197026676825091 2.407000000000000
-0.535310429615463 0.205907357366410 2.434000000000000
-0.528932449969264 0.210045164791195 2.405000000000000
-0.527612867973499 0.216095799784042 2.399000000000000
-0.526073355645106 0.222020729762172 2.392000000000000
-0.524973703981969 0.228098408818097 2.387000000000000
-0.523434191653576 0.233952083664487 2.380000000000000
-0.525633494979851 0.241485066568737 2.390000000000000
-0.525413564647224 0.247931277166019 2.389000000000000
-0.529152380301892 0.256289383533487 2.406000000000000
-0.526293285977734 0.261462824005306 2.393000000000000
-0.525633494979851 0.267685030393054 2.390000000000000
-0.520575097329417 0.271595939553724 2.367000000000000
-0.520575097329417 0.278082897124033 2.367000000000000
-0.520355166996790 0.284449630843606 2.366000000000000
-0.523214261320948 0.292532385457376 2.379000000000000
-0.522334539990438 0.298549409952698 2.375000000000000
-0.522114609657810 0.304929846582220 2.374000000000000
-0.521674748992555 0.311173615869066 2.372000000000000
-0.521894679325183 0.317808203110012 2.373000000000000
-0.521894679325183 0.324311604172262 2.373000000000000
-0.521674748992555 0.330675597309845 2.372000000000000
-0.522114609657810 0.337460554803418 2.374000000000000
-0.522114609657810 0.343966696447658 2.374000000000000
-0.521894679325183 0.350325208421260 2.373000000000000
-0.520795027662045 0.356076758220376 2.368000000000000
-0.521014957994673 0.362719567207292 2.369000000000000
-0.521454818659928 0.369523708774795 2.371000000000000
-0.522554470323065 0.376814588666049 2.376000000000000
-0.521674748992555 0.382680881151921 2.372000000000000
-0.522334539990438 0.389673761119911 2.375000000000000
-0.523874052318831 0.397350339558109 2.382000000000000
-0.526073355645106 0.405573949123836 2.392000000000000
-0.522994330988320 0.409717292524240 2.378000000000000
-0.521674748992555 0.415184183553219 2.372000000000000
-0.520795027662045 0.420973739743372 2.368000000000000
-0.521014957994673 0.427643954550188 2.369000000000000
-0.519255515333652 0.432670335392424 2.361000000000000
-0.521894679325183 0.441372823292754 2.373000000000000
-0.523214261320948 0.449008654757924 2.379000000000000
-0.523434191653576 0.455719978294591 2.380000000000000
-0.524753773649341 0.463407880817570 2.386000000000000
-0.522554470323065 0.467977307981123 2.376000000000000
-0.518155863670514 0.470494916220408 2.356000000000000
-0.521894679325183 0.480393229666252 2.373000000000000
-0.524973703981969 0.489769177222475 2.387000000000000
-0.527832798306127 0.499013938600001 2.400000000000000
-0.527173007308244 0.504959346206760 2.397000000000000
-0.522774400655693 0.507260448468837 2.377000000000000
-0.524313912984086 0.515287821401753 2.384000000000000
-0.523874052318831 0.521383599261139 2.382000000000000
-0.524313912984086 0.528354916330032 2.384000000000000
-0.523214261320948 0.533766633962388 2.379000000000000
-0.526513216310361 0.543693076741777 2.394000000000000
-0.525413564647224 0.549104794374133 2.389000000000000
-0.522774400655693 0.552860992200304 2.377000000000000
-0.519695375998907 0.556080759470081 2.363000000000000
-0.520355166996790 0.563270961341350 2.366000000000000
-0.528492589304009 0.578665128286643 2.403000000000000
-0.531571613960795 0.588660447372604 2.417000000000000
-0.530911822962912 0.594545562175584 2.414000000000000
-0.526953076975616 0.596678765422625 2.396000000000000
-0.523434191653576 0.599216851290540 2.380000000000000
-0.519695375998907 0.601412726166529 2.363000000000000
-0.522994330988320 0.611747515662426 2.378000000000000
-0.526513216310361 0.622424516150250 2.394000000000000
-0.523874052318831 0.625832660063691 2.382000000000000
-0.519035585001025 0.626520283047308 2.360000000000000
-0.518375794003142 0.632183410709098 2.357000000000000
-0.521894679325183 0.642978256222491 2.373000000000000
-0.523214261320948 0.651123835937800 2.379000000000000
-0.522114609657810 0.656261495371157 2.374000000000000
-0.519035585001025 0.658859150529206 2.360000000000000
-0.518155863670514 0.664199251273000 2.356000000000000
-0.517276142340004 0.669517427360874 2.352000000000000
-0.517935933337887 0.676825474257713 2.355000000000000
-0.518375794003142 0.683859824712376 2.357000000000000
-0.517716003005259 0.689440734914466 2.354000000000000
-0.517276142340004 0.695300822722713 2.352000000000000
-0.517056212007377 0.701448309883087 2.351000000000000
-0.517496072672632 0.708493622665709 2.353000000000000
-0.517716003005259 0.715246054932225 2.354000000000000
-0.516396421009494 0.719857884380327 2.348000000000000
-0.514856908681101 0.724127502836502 2.341000000000000
-0.514197117683218 0.729607011504963 2.338000000000000
-0.514856908681101 0.736958907713642 2.341000000000000
-0.514636978348473 0.743057064398195 2.340000000000000
-0.513977187350591 0.748509167246757 2.337000000000000
-0.515076839013729 0.756529041947348 2.342000000000000
-0.515736630011611 0.763924787467867 2.345000000000000
-0.515516699678984 0.770022944152420 2.344000000000000
-0.515076839013729 0.775784371009027 2.342000000000000
-0.511777884024315 0.777192975340243 2.327000000000000
-0.518375794003142 0.793672204469341 2.357000000000000
-0.517935933337887 0.799452815399878 2.355000000000000
-0.515956560344239 0.802826987058972 2.346000000000000
-0.511997814356943 0.803047264076999 2.328000000000000
-0.507379277371764 0.802125803675668 2.307000000000000
-0.508478929034902 0.810200490016060 2.312000000000000
-0.509578580698040 0.818302582176351 2.317000000000000
-0.510898162693805 0.826787994058418 2.323000000000000
-0.513097466020081 0.836740910859830 2.333000000000000
-0.515736630011611 0.847471429432754 2.345000000000000
-0.513757257017963 0.850620873368668 2.336000000000000
-0.510018441363295 0.850785976990074 2.319000000000000
-0.510458302028550 0.857880620248516 2.321000000000000
-0.513097466020081 0.868709799773080 2.333000000000000
-0.516616351342121 0.881105145168628 2.349000000000000
-0.515516699678984 0.885653579474137 2.344000000000000
-0.511997814356943 0.885988237422099 2.328000000000000
-0.511338023359060 0.891218353129471 2.325000000000000
-0.514856908681101 0.903767171116458 2.341000000000000
-0.520575097329417 0.920291696584687 2.367000000000000
-0.512217744689570 0.911900078380645 2.329000000000000
-0.510458302028550 0.915128637437446 2.321000000000000
-0.510458302028550 0.921489528236216 2.321000000000000
-0.511777884024315 0.930248998317282 2.327000000000000
-0.513757257017963 0.940248866769347 2.336000000000000
-0.508918789700157 0.937735489988654 2.314000000000000
-0.508478929034902 0.943261226794122 2.312000000000000
-0.510678232361177 0.953704707771742 2.322000000000000
-0.515736630011611 0.969578059996821 2.345000000000000
-0.516176490676866 0.976837138174663 2.347000000000000
-0.517935933337887 0.986620862406341 2.355000000000000
-0.517716003005259 0.992653245123134 2.354000000000000
-0.518375794003142 1.000377860482452 2.357000000000000
-0.518815654668397 1.007691750300094 2.359000000000000
-0.519475445666280 1.015446512061301 2.362000000000000
-0.519915306331535 1.022785067116853 2.364000000000000
-0.520575097329417 1.030569975279950 2.367000000000000
-0.520575097329417 1.037056932850260 2.367000000000000
-0.521234888327300 1.044866506251267 2.370000000000000
-0.521454818659928 1.051805298093103 2.371000000000000
-0.521234888327300 1.057856864883827 2.370000000000000
-0.520795027662045 1.063453856821034 2.368000000000000
-0.520795027662045 1.069943554973334 2.368000000000000
-0.521454818659928 1.077796977686181 2.371000000000000
-0.521894679325183 1.085209528455463 2.373000000000000
-0.521674748992555 1.091252873500216 2.372000000000000
-0.520575097329417 1.095439550983047 2.367000000000000
-0.520575097329417 1.101926508553356 2.367000000000000
-0.519695375998907 1.106540355069803 2.363000000000000
-0.519475445666280 1.112545331966696 2.362000000000000
-0.519255515333652 1.118544827699610 2.361000000000000
-0.519035585001025 1.124538842268544 2.360000000000000
-0.519255515333652 1.131485855856350 2.361000000000000
-0.518815654668397 1.136992408587888 2.359000000000000
-0.518815654668397 1.143457441502277 2.359000000000000
-0.517716003005259 1.147485165229688 2.354000000000000
-0.516616351342121 1.151485483137199 2.349000000000000
-0.515516699678984 1.155458395224810 2.344000000000000
-0.515296769346356 1.161386635825984 2.343000000000000
-0.514856908681101 1.166810971097822 2.341000000000000
-0.514856908681101 1.173226673536392 2.341000000000000
-0.514417048015846 1.178634565316290 2.339000000000000
-0.514417048015846 1.185044786590880 2.339000000000000
-0.513977187350591 1.190436234878839 2.337000000000000
-0.513317396352708 1.195304593763532 2.334000000000000
-0.512877535687453 1.200671376813580 2.332000000000000
-0.512437675022198 1.206027197535668 2.330000000000000
-0.511557953691688 1.210331358287246 2.326000000000000
-0.511338023359060 1.216182862592700 2.325000000000000
-0.511118093026433 1.222028885734174 2.324000000000000
-0.510238371695922 1.226283716009932 2.320000000000000
-0.509138720032785 1.229985310480534 2.315000000000000
-0.508258998702274 1.234193550862461 2.311000000000000
-0.509358650365412 1.243210997407409 2.316000000000000
-0.509578580698040 1.250097718191435 2.317000000000000
-0.511118093026433 1.260243561002614 2.324000000000000
-0.511777884024315 1.268247715724911 2.327000000000000
-0.512877535687453 1.277363823221499 2.332000000000000
-0.514856908681101 1.288709317430649 2.341000000000000
-0.554004507888806 1.428118623350855 2.519000000000000
-0.555763950549826 1.439579583760407 2.527000000000000
-0.557303462878219 1.450511973602714 2.534000000000000
-0.557083532545591 1.456881447904277 2.533000000000000
-0.557083532545591 1.463823342084925 2.533000000000000
-0.556643671880336 1.469603953015463 2.531000000000000
-0.557963253876101 1.480040659274403 2.537000000000000
-0.556423741547709 1.482890656259763 2.530000000000000
-0.575575438836145 -0.429448649715254 2.650000000000000
-0.574923843999727 -0.421708160905050 2.647000000000000
-0.572751861211666 -0.412888091075021 2.637000000000000
-0.572317464654054 -0.405353507670889 2.635000000000000
-0.569711085308381 -0.396318948931995 2.623000000000000
-0.571231473260023 -0.390168874662223 2.630000000000000
-0.569059490471962 -0.381505018005624 2.620000000000000
-0.570145481865993 -0.375039053293357 2.625000000000000
-0.569059490471962 -0.367144368378069 2.620000000000000
-0.568407895635544 -0.359551870995325 2.617000000000000
-0.567973499077932 -0.352110467378853 2.615000000000000
-0.567756300799126 -0.344811935782683 2.614000000000000
-0.564498326617034 -0.335710517805561 2.599000000000000
-0.566453111126289 -0.329725601968834 2.608000000000000
-0.569059490471962 -0.324062419495404 2.620000000000000
-0.571665869817635 -0.318333463054214 2.632000000000000
-0.571448671538829 -0.311002044474165 2.631000000000000
-0.573620654326890 -0.304946235262520 2.641000000000000
-0.573620654326890 -0.297708358226953 2.641000000000000
-0.574706645720921 -0.291020406373497 2.646000000000000
-0.571883068096442 -0.282374648520360 2.633000000000000
-0.561023154156137 -0.241617809398004 2.583000000000000
-0.554941602349566 -0.224994272183641 2.555000000000000
-0.566453111126289 -0.222514034520371 2.608000000000000
-0.549946041937026 -0.209090576234769 2.532000000000000
-0.567104705962708 -0.201303015188305 2.611000000000000
