# This PCD file was generated using the MATLAB® pcwrite function
# from Computer Vision Toolbox®.
# .PCD v.7 - Point Cloud Data file format
VERSION .7
FIELDS x y z
SIZE 8 8 8
TYPE F F F
COUNT 1 1 1
WIDTH 865
HEIGHT 1
VIEWPOINT 0 0 0 1 0 0 0
POINTS 865
DATA ascii
-0.704327573253193 0.438573570923521 2.467000000000000
-0.692622088655147 0.437933403857643 2.426000000000000
-0.692622088655147 0.444582055765362 2.426000000000000
-0.682629601803156 0.444720784025696 2.391000000000000
-0.684628099173554 0.452594684367172 2.398000000000000
-0.683771600300526 0.458592163031741 2.395000000000000
-0.680916604057100 0.463213661253104 2.385000000000000
-0.683486100676183 0.471522590617343 2.394000000000000
-0.687197595792637 0.480679653371190 2.407000000000000
-0.687197595792637 0.487276234221099 2.407000000000000
-0.682629601803156 0.490589904792182 2.391000000000000
-0.678632607062359 0.494231721688418 2.377000000000000
-0.678918106686702 0.500956748135034 2.378000000000000
-0.683200601051841 0.510674906683183 2.393000000000000
-0.686341096919609 0.519610705809486 2.404000000000000
-0.683486100676183 0.524010216889659 2.394000000000000
-0.683200601051841 0.530349544789331 2.393000000000000
-0.672637114951165 0.528606216736186 2.356000000000000
-0.670353117956424 0.533246175517833 2.348000000000000
-0.668925619834711 0.538531826378650 2.343000000000000
-0.674921111945905 0.549837351940058 2.364000000000000
-0.674350112697220 0.555845431175764 2.362000000000000
-0.675206611570248 0.563032892465044 2.365000000000000
-0.676919609316304 0.570959225621153 2.371000000000000
-0.676919609316304 0.577457145519422 2.371000000000000
-0.671780616078137 0.579521834216714 2.353000000000000
-0.674350112697220 0.588211704477563 2.362000000000000
-0.678061607813674 0.597957992359257 2.375000000000000
-0.671495116453794 0.598613090115817 2.352000000000000
-0.667498121712998 0.601457397652965 2.338000000000000
-0.666641622839970 0.607084897748886 2.335000000000000
-0.669496619083396 0.616111497837681 2.345000000000000
-0.662359128474831 0.615901295199048 2.320000000000000
-0.661788129226146 0.621723014859435 2.318000000000000
-0.661217129977461 0.627533772191863 2.316000000000000
-0.670353117956424 0.642639246230329 2.348000000000000
-0.665785123966942 0.644651140356166 2.332000000000000
-0.664357625845229 0.649646289526044 2.327000000000000
-0.661502629601803 0.653204441935289 2.317000000000000
-0.670067618332081 0.668094133510192 2.347000000000000
-0.668069120961683 0.672514483975817 2.340000000000000
-0.661217129977461 0.671964087413603 2.316000000000000
-0.662930127723516 0.680068558399062 2.322000000000000
-0.668925619834711 0.692640232839846 2.343000000000000
-0.666356123215627 0.696376161321618 2.334000000000000
-0.667498121712998 0.703977088734564 2.338000000000000
-0.667783621337340 0.710688412271230 2.339000000000000
-0.670924117205109 0.720471051232440 2.350000000000000
-0.672922614575507 0.729076686965244 2.357000000000000
-0.672922614575507 0.735536238715654 2.357000000000000
-0.670067618332081 0.738847738745800 2.347000000000000
-0.670924117205109 0.746232521938359 2.350000000000000
-0.672922614575507 0.754914893966883 2.357000000000000
-0.665214124718257 0.752652718931392 2.330000000000000
-0.668640120210368 0.762947484967908 2.342000000000000
-0.672637114951165 0.773965041136136 2.356000000000000
-0.675777610818933 0.784065587608184 2.367000000000000
-0.675206611570248 0.789884566686582 2.365000000000000
-0.670353117956424 0.790641636017825 2.348000000000000
-0.667212622088655 0.793342348021026 2.337000000000000
-0.661217129977461 0.792560657301184 2.316000000000000
-0.663501126972201 0.801667457781334 2.324000000000000
-0.668354620586026 0.813947336976480 2.341000000000000
-0.665214124718257 0.816508279298192 2.330000000000000
-0.665499624342600 0.823247008654758 2.331000000000000
-0.662073628850488 0.825364338450913 2.319000000000000
-0.659789631855748 0.828850512214774 2.311000000000000
-0.661217129977461 0.836990972522925 2.316000000000000
-0.664928625093914 0.848071923833745 2.329000000000000
-0.665214124718257 0.854821615518271 2.330000000000000
-0.668354620586026 0.865272956485039 2.341000000000000
-0.670638617580766 0.874667518074138 2.349000000000000
-0.669211119459053 0.879229655289597 2.344000000000000
-0.667212622088655 0.883008709569564 2.337000000000000
-0.673493613824192 0.897786190755469 2.359000000000000
-0.672351615326822 0.902717944782754 2.355000000000000
-0.674064613072878 0.911488377191780 2.361000000000000
-0.683771600300526 0.931178121385857 2.395000000000000
-0.671209616829452 0.920513990671059 2.351000000000000
-0.658076634109692 0.908820124641669 2.305000000000000
-0.660646130728775 0.918710369814134 2.314000000000000
-0.666927122464313 0.933846867240727 2.336000000000000
-0.670067618332081 0.944676408522114 2.347000000000000
-0.679774605559730 0.964886863294289 2.381000000000000
-0.654365138993238 0.935101527600401 2.292000000000000
-0.661502629601803 0.951651080063362 2.317000000000000
-0.654650638617581 0.948077821566188 2.293000000000000
-0.669496619083396 0.976004724763351 2.345000000000000
-0.658076634109692 0.965673498024040 2.305000000000000
-0.663786626596544 0.980424296903690 2.325000000000000
-0.654365138993238 0.972790011126763 2.292000000000000
-0.648655146506386 0.970528044375504 2.272000000000000
-0.655792637114951 0.987502387046913 2.297000000000000
-0.648369646882044 0.982548598740428 2.271000000000000
-0.658647633358377 1.004446528504793 2.307000000000000
-0.649226145755071 0.996310716223697 2.274000000000000
-0.640090157776108 0.988434897474828 2.242000000000000
-0.646085649887303 1.003895145333063 2.263000000000000
-0.637235161532682 0.996260136042490 2.232000000000000
-0.634094665664914 0.997437084459256 2.221000000000000
-0.631810668670173 1.005974150830670 2.213000000000000
-0.636949661908340 1.020270736613627 2.231000000000000
-0.666070623591285 1.073310688817877 2.333000000000000
-0.643230653643877 1.042680738641658 2.253000000000000
-0.640090157776108 1.043734360868874 2.242000000000000
-0.642659654395192 1.054093245561627 2.251000000000000
-0.650082644628099 1.072508772602950 2.277000000000000
-0.654365138993238 1.092136875626908 2.292000000000000
-0.674635612321563 1.138920331281551 2.363000000000000
-0.678347107438017 1.151697702844176 2.376000000000000
-0.677490608564989 1.156746940140208 2.373000000000000
-0.675206611570248 1.159328721847372 2.365000000000000
-0.690623591284748 1.192429120327993 2.419000000000000
-0.687197595792637 1.193110385161393 2.407000000000000
-0.683771600300526 1.193725876027033 2.395000000000000
-0.682629601803156 1.198284910903680 2.391000000000000
-0.674921111945905 1.191232198549684 2.364000000000000
-0.677205108940646 1.201764101664629 2.372000000000000
-0.684342599549211 1.220999424477782 2.397000000000000
-0.678918106686702 1.217838185076983 2.378000000000000
-0.687197595792637 1.239286451110758 2.407000000000000
-0.688054094665665 1.247435856678524 2.410000000000000
-0.694620586025545 1.272676518145393 2.433000000000000
-0.688339594290008 1.267776094451418 2.411000000000000
-0.685199098422239 1.268569361389585 2.400000000000000
-0.685199098422239 1.275146758165564 2.400000000000000
-0.695477084898573 1.300950017265667 2.436000000000000
-0.701187077385425 1.318361921257598 2.456000000000000
-0.702614575507137 1.327790455101045 2.461000000000000
-0.712321562734786 1.352972325603065 2.495000000000000
-0.694049586776860 1.324929177880215 2.431000000000000
-0.701758076634110 1.346380908009625 2.458000000000000
-0.705755071374906 1.360824191665342 2.472000000000000
-0.787507683901373 -0.665036806016126 2.785000000000000
-0.776479748651049 -0.648198264663484 2.746000000000000
-0.771107164811147 -0.636239713225501 2.727000000000000
-0.766017348541766 -0.624615874547119 2.709000000000000
-0.763755207977597 -0.615368997440296 2.701000000000000
-0.761210299842907 -0.605940880165312 2.692000000000000
-0.756686018714569 -0.595005651080063 2.676000000000000
-0.759796461990301 -0.590087545151088 2.687000000000000
-0.729540331944539 -0.559518753802558 2.580000000000000
-0.729540331944539 -0.552448052268380 2.580000000000000
-0.752444505156752 -0.562499662908415 2.661000000000000
-0.739719964483300 -0.545817904770257 2.616000000000000
-0.737175056348610 -0.536795393629791 2.607000000000000
-0.754706645720921 -0.542246915474970 2.669000000000000
-0.758665391708217 -0.537738241532972 2.683000000000000
-0.746506386175808 -0.521884862669437 2.640000000000000
-0.754423878150400 -0.520108132402997 2.668000000000000
-0.747637456457892 -0.508183399746770 2.644000000000000
-0.739437196912779 -0.495442905455403 2.615000000000000
-0.746789153746329 -0.493131038187269 2.641000000000000
-0.749616829451540 -0.487732968653223 2.651000000000000
-0.758948159278738 -0.486448611347106 2.684000000000000
-0.762341370124991 -0.481234884320034 2.696000000000000
-0.752161737586231 -0.467518951124461 2.660000000000000
-0.752727272727273 -0.460575039875468 2.662000000000000
-0.754141110579879 -0.454130999819122 2.667000000000000
-0.761493067413428 -0.451177836365331 2.693000000000000
-0.770824397240626 -0.426823259867465 2.726000000000000
-0.769693326958541 -0.418737095969700 2.722000000000000
-0.770541629670105 -0.411730513091760 2.725000000000000
-0.771389932381668 -0.404707486721880 2.728000000000000
-0.772238235093231 -0.397668016860060 2.731000000000000
-0.772803770234274 -0.390469231485998 2.733000000000000
-0.777045283792091 -0.385081192482036 2.748000000000000
-0.786659381189809 -0.382221362288496 2.782000000000000
-0.748202991598935 0.028049111229261 2.646000000000000
-0.748485759169456 0.042568352855412 2.647000000000000
-0.750465132163104 0.049954429602670 2.654000000000000
-0.741699337476948 0.056559484332093 2.623000000000000
-0.729823099515060 0.083947611034679 2.581000000000000
-0.734064613072878 0.091550040286555 2.596000000000000
-0.734912915784441 0.098778610305684 2.599000000000000
-0.731236937367666 0.105371672248319 2.586000000000000
-0.720774537258384 0.110849777738801 2.549000000000000
-0.731236937367666 0.119545962300554 2.586000000000000
-0.731802472508708 0.126731044764666 2.588000000000000
-0.715119185847961 0.130772822196522 2.529000000000000
-0.713139812854313 0.137322604868370 2.522000000000000
-0.712574277713271 0.151026238331972 2.520000000000000
-0.713422580424835 0.158120519833592 2.523000000000000
-0.700132504610341 0.175531996294733 2.476000000000000
-0.691366709924185 0.180035024637832 2.445000000000000
-0.703808483027116 0.190096227314832 2.489000000000000
-0.710029369578581 0.198658068547437 2.511000000000000
-0.727843726521412 0.210696579205560 2.574000000000000
-0.693346082917834 0.207430090494017 2.452000000000000
-0.711443207431186 0.219739557012327 2.516000000000000
-0.700132504610341 0.229817444352483 2.476000000000000
-0.693628850488355 0.234405277264680 2.453000000000000
-0.696456526193566 0.242110916834299 2.463000000000000
-0.699001434328256 0.249770328266911 2.472000000000000
-0.687407963936890 0.252290052235493 2.431000000000000
-0.681187077385425 0.256608946355848 2.409000000000000
-0.701829110033468 0.271187099532457 2.482000000000000
-0.699284201898777 0.276981205088713 2.473000000000000
-0.699284201898777 0.283758664349961 2.473000000000000
-0.676945563827608 0.281254945380201 2.394000000000000
-0.671007444846664 0.291794598861014 2.373000000000000
-0.692215012635749 0.307725876027033 2.448000000000000
-0.696456526193566 0.316361504689136 2.463000000000000
-0.677511098968650 0.314322084157792 2.396000000000000
-0.687125196366368 0.332101642704845 2.430000000000000
-0.684014753090636 0.337227769769188 2.419000000000000
-0.691932245065228 0.347837395789370 2.447000000000000
-0.688256266648453 0.352660041766469 2.434000000000000
-0.696739293764087 0.363759508449214 2.464000000000000
-0.712008742572229 0.378632296114403 2.518000000000000
-0.692780547776791 0.381835970686735 2.450000000000000
-0.700980807321904 0.393149564521522 2.479000000000000
-0.679490471962298 0.387682191150113 2.403000000000000
-0.682318147667509 0.395908541297830 2.413000000000000
-0.682035380096988 0.402354751895112 2.412000000000000
-0.685711358513763 0.411169241900210 2.425000000000000
-0.680904309814903 0.414886139780644 2.408000000000000
-0.680056007103340 0.420960354740933 2.405000000000000
-0.684297520661157 0.430218095514763 2.420000000000000
-0.682035380096988 0.435406170694409 2.412000000000000
-0.674966190833959 0.437435023541599 2.387000000000000
-0.672138515128748 0.448631177956951 2.377000000000000
-0.674117888122396 0.456485894224497 2.384000000000000
-0.678642169250734 0.466126954720104 2.400000000000000
-0.678924936821256 0.472901311642540 2.401000000000000
-0.680056007103340 0.480280251914297 2.405000000000000
-0.681187077385425 0.487681116841973 2.409000000000000
-0.684297520661157 0.496540179672555 2.420000000000000
-0.677793866539171 0.498390171176751 2.397000000000000
-0.672138515128748 0.500746085078627 2.377000000000000
-0.673835120551875 0.508540870299217 2.383000000000000
-0.678642169250734 0.518746128927939 2.400000000000000
-0.681752612526467 0.527731258530061 2.411000000000000
-0.675248958404481 0.529241417867498 2.388000000000000
-0.674117888122396 0.534888463794171 2.384000000000000
-0.668179769141452 0.536652773743032 2.363000000000000
-0.669593606994058 0.544278004637065 2.368000000000000
-0.665069325865720 0.547046299392139 2.352000000000000
-0.663938255583635 0.552550835055332 2.348000000000000
-0.664503790724677 0.559461859320445 2.350000000000000
-0.667048698859368 0.568069512121594 2.359000000000000
-0.664786558295198 0.572586144713691 2.351000000000000
-0.665634861006762 0.579768124838991 2.354000000000000
-0.663372720442593 0.584227205209298 2.346000000000000
-0.664221023154156 0.591411925916588 2.349000000000000
-0.658565671743733 0.592759305646147 2.329000000000000
-0.659131206884776 0.599656627001310 2.331000000000000
-0.660545044737381 0.607344891281112 2.336000000000000
-0.661110579878424 0.614272359038165 2.338000000000000
-0.659413974455297 0.619086991553526 2.332000000000000
-0.658565671743733 0.624673382919597 2.329000000000000
-0.667331466429889 0.639455830040067 2.360000000000000
-0.664503790724677 0.643186639114682 2.350000000000000
-0.662241650160508 0.647415510597831 2.342000000000000
-0.657717369032170 0.649367111919887 2.326000000000000
-0.661110579878424 0.659124723886364 2.338000000000000
-0.649234341916536 0.653576536233234 2.296000000000000
-0.654324158185916 0.665042100820530 2.314000000000000
-0.659696742025818 0.676896466293582 2.333000000000000
-0.661393347448945 0.685047527172870 2.339000000000000
-0.661958882589987 0.692048990643653 2.341000000000000
-0.659413974455297 0.695779437961445 2.332000000000000
-0.655737996038522 0.698256145755112 2.319000000000000
-0.656586298750085 0.705523083922102 2.322000000000000
-0.660545044737381 0.716178883267651 2.336000000000000
-0.661110579878424 0.723199530812363 2.338000000000000
-0.663089952872072 0.731791463635218 2.345000000000000
-0.665917628577283 0.741366180122011 2.355000000000000
-0.668745304282494 0.750995708248604 2.365000000000000
-0.661958882589987 0.749790312590782 2.341000000000000
-0.663089952872072 0.757498122701337 2.345000000000000
-0.665069325865720 0.766205159967771 2.352000000000000
-0.670159142135100 0.778564154283804 2.370000000000000
-0.669310839423537 0.784065587608184 2.367000000000000
-0.669310839423537 0.790552545178494 2.367000000000000
-0.662241650160508 0.788621257050147 2.342000000000000
-0.658848439314255 0.790966055151472 2.330000000000000
-0.658282904173212 0.796667189204299 2.328000000000000
-0.658000136602691 0.802702312503083 2.327000000000000
-0.663938255583635 0.816381182067824 2.348000000000000
-0.662241650160508 0.820713472152946 2.342000000000000
-0.658000136602691 0.821834315375213 2.327000000000000
-0.659413974455297 0.829991219175304 2.332000000000000
-0.659696742025818 0.836740910859830 2.333000000000000
-0.662807185301550 0.847110034366898 2.344000000000000
-0.660827812307903 0.850985009016515 2.337000000000000
-0.660827812307903 0.857389749127125 2.337000000000000
-0.663089952872072 0.866751423732344 2.345000000000000
-0.664221023154156 0.874667518074138 2.349000000000000
-0.662807185301550 0.879229655289597 2.344000000000000
-0.663089952872072 0.886031418031933 2.345000000000000
-0.663938255583635 0.893599820217821 2.348000000000000
-0.662807185301550 0.898501427843217 2.344000000000000
-0.667048698859368 0.910716256584248 2.359000000000000
-0.667048698859368 0.917181289498638 2.359000000000000
-0.663089952872072 0.918164741864582 2.345000000000000
-0.657434601461649 0.916705765636391 2.325000000000000
-0.655455228468001 0.920298460341038 2.318000000000000
-0.660827812307903 0.934246630454443 2.337000000000000
-0.665069325865720 0.946688927500644 2.352000000000000
-0.669876374564579 0.960023930761937 2.369000000000000
-0.673552352981354 0.971820173972145 2.382000000000000
-0.656869066320607 0.954115433313418 2.323000000000000
-0.649799877057578 0.956443009597518 2.298000000000000
-0.659413974455297 0.976985074790482 2.332000000000000
-0.657434601461649 0.980424296903690 2.325000000000000
-0.644144525647155 0.966848012803999 2.278000000000000
-0.651213714910184 0.990081844740549 2.303000000000000
-0.656869066320607 1.005046409015418 2.323000000000000
-0.642730687794550 0.989643241998871 2.273000000000000
-0.643296222935592 0.996748847585273 2.275000000000000
-0.645558363499761 1.006510647161031 2.283000000000000
-0.633399357967352 0.993692057245277 2.240000000000000
-0.637075336384127 1.005633551300954 2.253000000000000
-0.636227033672563 1.010460801455797 2.250000000000000
-0.636227033672563 1.016627110933278 2.250000000000000
-0.637358103954648 1.024611719824822 2.254000000000000
-0.626047401133802 1.018564022735868 2.214000000000000
-0.645841131070282 1.057027433225720 2.284000000000000
-0.641882385082986 1.056769401950198 2.270000000000000
-0.641599617512465 1.062522245304013 2.269000000000000
-0.640185779659859 1.066385534112024 2.264000000000000
-0.636509801243085 1.066431345680569 2.251000000000000
-0.667614234000410 1.131485855856350 2.361000000000000
-0.671290212417185 1.144222118689125 2.374000000000000
-0.671007444846664 1.150243539077959 2.373000000000000
-0.657151833891128 1.132861310107814 2.324000000000000
-0.657151833891128 1.139230422652554 2.324000000000000
-0.665069325865720 1.159401939235816 2.352000000000000
-0.662524417731029 1.161386635825984 2.343000000000000
-0.676097261116044 1.191732179365610 2.391000000000000
-0.672138515128748 1.191268604440839 2.377000000000000
-0.663938255583635 1.183169713280312 2.348000000000000
-0.673269585410833 1.206323914866561 2.381000000000000
-0.678642169250734 1.229104980733708 2.400000000000000
-0.678359401680213 1.235167509852392 2.399000000000000
-0.683166450379072 1.250541506114238 2.416000000000000
-0.686559661225326 1.263406938057366 2.428000000000000
-0.686276893654805 1.269537981725799 2.427000000000000
-0.681187077385425 1.266724434480907 2.409000000000000
-0.672421282699269 1.256940808910180 2.378000000000000
-0.675814493545523 1.269833646673207 2.390000000000000
-0.676662796257086 1.277985792822964 2.393000000000000
-0.684297520661157 1.299037397981835 2.420000000000000
-0.689104569360016 1.314841665616110 2.437000000000000
-0.683449217949594 1.310674994381807 2.417000000000000
-0.680621542244382 1.311848840459760 2.407000000000000
-0.678642169250734 1.314611138821440 2.400000000000000
-0.681187077385425 1.332745054619799 2.409000000000000
-0.779338842975207 -0.664559221236222 2.783000000000000
-0.759736356806229 -0.640408555000740 2.713000000000000
-0.760016392322929 -0.633206667287865 2.714000000000000
-0.754975753022335 -0.614229847130337 2.696000000000000
-0.750495184755140 -0.603239806405288 2.680000000000000
-0.747414794071443 -0.593449208793979 2.669000000000000
-0.731172734102862 -0.573397313133417 2.611000000000000
-0.726692165835667 -0.562771769813038 2.595000000000000
-0.729772556519363 -0.558015358221472 2.606000000000000
-0.743494296837648 -0.561231343488103 2.655000000000000
-0.742094119254149 -0.552911868364366 2.650000000000000
-0.741814083737450 -0.545443420684817 2.649000000000000
-0.749935113721740 -0.544075398891709 2.678000000000000
-0.755815859572434 -0.540945029406445 2.699000000000000
-0.751895362338638 -0.530780627374029 2.685000000000000
-0.744054367871047 -0.517963758543764 2.657000000000000
-0.742934225804248 -0.509913222211869 2.653000000000000
-0.739013728570453 -0.499989991394573 2.639000000000000
-0.743494296837648 -0.495745136837259 2.655000000000000
-0.746574687521344 -0.490492679905505 2.666000000000000
-0.758056143706031 -0.490617135214834 2.707000000000000
-0.753015504405437 -0.479985387216829 2.689000000000000
-0.755815859572434 -0.474373552287564 2.699000000000000
-0.754135646472236 -0.465938610963424 2.693000000000000
-0.757776108189331 -0.460771835587005 2.706000000000000
-0.748254900621542 -0.447659553942875 2.672000000000000
-0.757216037155932 -0.445610212504728 2.704000000000000
-0.765337067140223 -0.435409294957877 2.733000000000000
-0.765057031623523 -0.427762709448979 2.732000000000000
-0.763376818523325 -0.419352433362749 2.726000000000000
-0.764216925073424 -0.412334888156849 2.729000000000000
-0.764216925073424 -0.404855839906163 2.729000000000000
-0.766177173690322 -0.398396079871522 2.736000000000000
-0.766457209207021 -0.391040719567207 2.737000000000000
-0.768137422307219 -0.384380535290474 2.743000000000000
-0.770937777474216 -0.378237027455150 2.753000000000000
-0.778218700908408 -0.374193112369343 2.779000000000000
-0.781299091592104 -0.368028041634922 2.790000000000000
-0.782419233658903 -0.360898494324255 2.794000000000000
-0.756655966122533 0.036047795749905 2.702000000000000
-0.737053479953555 0.049540338626311 2.632000000000000
-0.724171846185370 0.069935947117730 2.586000000000000
-0.711850283450584 0.075712567760890 2.542000000000000
-0.721931562051772 0.083850035353508 2.578000000000000
-0.723051704118571 0.091056318959894 2.582000000000000
-0.723611775151971 0.098208514440126 2.584000000000000
-0.722211597568472 0.105086443437128 2.579000000000000
-0.699528720715798 0.108631912432924 2.498000000000000
-0.705409466566491 0.116448677121073 2.519000000000000
-0.714650638617581 0.124968170880768 2.552000000000000
-0.696168294515402 0.128549322254074 2.486000000000000
-0.708209821733488 0.137703754049210 2.529000000000000
-0.718291100334677 0.146693542640715 2.565000000000000
-0.703449217949594 0.150546789956315 2.512000000000000
-0.682446554197118 0.172767154672966 2.437000000000000
-0.685526944880814 0.180255926508553 2.448000000000000
-0.689167406597910 0.187957740225714 2.461000000000000
-0.713250461034082 0.208486475227879 2.547000000000000
-0.679926234546821 0.218708045800606 2.428000000000000
-0.678806092480022 0.224990906748957 2.424000000000000
-0.691127655214808 0.235838656457085 2.468000000000000
-0.693087903831705 0.243290507172103 2.475000000000000
-0.697848507615600 0.251791123803051 2.492000000000000
-0.672365275595929 0.249176641471583 2.401000000000000
-0.669844955945632 0.254798090362469 2.392000000000000
-0.698128543132300 0.272388976283003 2.493000000000000
-0.694768116931904 0.277877221926848 2.481000000000000
-0.680486305580220 0.278824728819412 2.430000000000000
-0.674325524212827 0.282899711142658 2.408000000000000
-0.663404139061540 0.284810302395817 2.369000000000000
-0.676565808346424 0.310324561643911 2.416000000000000
-0.667324636295335 0.312616663834732 2.383000000000000
-0.668724813878833 0.319817104520316 2.388000000000000
-0.675445666279626 0.329641630536661 2.412000000000000
-0.674325524212827 0.335694282597852 2.408000000000000
-0.678526056963322 0.344425831629605 2.423000000000000
-0.678806092480022 0.357854321623740 2.424000000000000
-0.683846731780616 0.367204156914762 2.442000000000000
-0.678246021446623 0.377472131021744 2.422000000000000
-0.675165630762926 0.382365308616938 2.411000000000000
-0.678526056963322 0.390908842761849 2.423000000000000
-0.678246021446623 0.397385199761021 2.422000000000000
-0.681046376613619 0.405691026786448 2.432000000000000
-0.669564920428933 0.405404394797279 2.391000000000000
-0.677685950413223 0.416953678683205 2.420000000000000
-0.673485417662728 0.420960354740933 2.405000000000000
-0.672645311112629 0.427018126209282 2.402000000000000
-0.670965098012431 0.432517904222140 2.396000000000000
-0.673485417662728 0.440733653798721 2.405000000000000
-0.663684174578239 0.440814829837264 2.370000000000000
-0.661163854927942 0.445611363549163 2.361000000000000
-0.670685062495731 0.458592163031741 2.395000000000000
-0.670965098012431 0.465350076462237 2.396000000000000
-0.669844955945632 0.471128670324430 2.392000000000000
-0.670124991462332 0.477883843172936 2.393000000000000
-0.672645311112629 0.486264027668916 2.402000000000000
-0.672365275595929 0.492641723716448 2.401000000000000
-0.670124991462332 0.497558481279084 2.393000000000000
-0.665364387678437 0.500535422022221 2.376000000000000
-0.664524281128338 0.506406833915250 2.373000000000000
-0.668164742845434 0.515720109842526 2.386000000000000
-0.672365275595929 0.525542410506295 2.401000000000000
-0.672925346629329 0.532565798632998 2.403000000000000
-0.671245133529131 0.537805221356807 2.397000000000000
-0.669004849395533 0.542557544000044 2.389000000000000
-0.661723925961342 0.543128768985382 2.363000000000000
-0.659483641827744 0.547744062529119 2.355000000000000
-0.661163854927942 0.555610102881448 2.361000000000000
-0.660883819411242 0.561842548083511 2.360000000000000
-0.660603783894543 0.568069512121594 2.359000000000000
-0.657523393210846 0.571855494592832 2.348000000000000
-0.659763677344444 0.580260706083544 2.356000000000000
-0.658923570794345 0.585970423639164 2.353000000000000
-0.654443002527150 0.588390664481509 2.337000000000000
-0.654723038043850 0.595049916960366 2.338000000000000
-0.651082576326754 0.598113109299891 2.325000000000000
-0.656123215627348 0.609164846006698 2.343000000000000
-0.655003073560549 0.614535093152382 2.339000000000000
-0.652762789426952 0.618821516857320 2.331000000000000
-0.663404139061540 0.635401994047456 2.369000000000000
-0.662564032511441 0.641081565201186 2.366000000000000
-0.661443890444642 0.646470996420800 2.362000000000000
-0.653882931493750 0.645480451428665 2.335000000000000
-0.653042824943651 0.651042177556826 2.332000000000000
-0.646041937026159 0.650385260053825 2.307000000000000
-0.651922682876853 0.662685616877600 2.328000000000000
-0.650802540810054 0.667916094341794 2.324000000000000
-0.651642647360153 0.675155626688884 2.327000000000000
-0.653882931493750 0.683876005108445 2.335000000000000
-0.654723038043850 0.691162127349364 2.338000000000000
-0.648282221159757 0.690707289399977 2.315000000000000
-0.646882043576259 0.695546225396425 2.310000000000000
-0.646321972542859 0.701269284105172 2.308000000000000
-0.648002185643057 0.709434047894411 2.314000000000000
-0.646321972542859 0.713919810570973 2.308000000000000
-0.646602008059559 0.720557138393909 2.309000000000000
-0.654162967010450 0.735384881853510 2.336000000000000
-0.657243357694147 0.745279884676310 2.347000000000000
-0.659763677344444 0.754594607630876 2.356000000000000
-0.661723925961342 0.763312607225270 2.363000000000000
-0.663404139061540 0.771743207467538 2.369000000000000
-0.663964210094939 0.778892662365780 2.371000000000000
-0.664804316645038 0.786384328255948 2.374000000000000
-0.657523393210846 0.784206749505325 2.348000000000000
-0.653322860460351 0.785590688598631 2.333000000000000
-0.648842292193156 0.786552939822301 2.317000000000000
-0.646602008059559 0.790165180357701 2.309000000000000
-0.652482753910252 0.803737167224832 2.330000000000000
-0.657243357694147 0.816033489911918 2.347000000000000
-0.656963322177447 0.822115203104531 2.346000000000000
-0.655283109077249 0.826425568533734 2.340000000000000
-0.658083464244246 0.836397669409076 2.350000000000000
-0.658643535277645 0.843555346053288 2.352000000000000
-0.656403251144048 0.847110034366898 2.344000000000000
-0.654162967010450 0.850620873368668 2.336000000000000
-0.656123215627348 0.859591006506142 2.343000000000000
-0.651362611843453 0.859728704307647 2.326000000000000
-0.651922682876853 0.866848012803999 2.328000000000000
-0.654723038043850 0.876979067434760 2.338000000000000
-0.660323748377843 0.890943319283283 2.358000000000000
-0.662003961478041 0.899689086454399 2.364000000000000
-0.656963322177447 0.899268067286769 2.346000000000000
-0.659763677344444 0.909558075672950 2.356000000000000
-0.660323748377843 0.916792488612882 2.358000000000000
-0.656683286660747 0.918164741864582 2.345000000000000
-0.649682398743255 0.914734355387710 2.320000000000000
-0.652762789426952 0.925459754553477 2.331000000000000
-0.656403251144048 0.937044972950456 2.344000000000000
-0.663124103544840 0.953128988231941 2.368000000000000
-0.664244245611639 0.961239663895025 2.372000000000000
-0.660043712861143 0.961620549979994 2.357000000000000
-0.656683286660747 0.963151395230291 2.345000000000000
-0.636800764975070 0.940221965216533 2.274000000000000
-0.651362611843453 0.968096797355886 2.326000000000000
-0.649962434259955 0.972376654626376 2.321000000000000
-0.648002185643057 0.975785730337694 2.314000000000000
-0.651082576326754 0.986796150030420 2.325000000000000
-0.634560480841473 0.967965030173808 2.266000000000000
-0.650242469776655 0.998250127437063 2.322000000000000
-0.653602895977051 1.009805561188974 2.334000000000000
-0.634280445324773 0.986160115762183 2.265000000000000
-0.626999521890581 0.980976118568539 2.239000000000000
-0.626439450857182 0.986230537756998 2.237000000000000
-0.627279557407281 0.993692057245277 2.240000000000000
-0.630359948090977 1.004740845085862 2.251000000000000
-0.633160303257974 1.015400832040692 2.261000000000000
-0.634840516358172 1.024308293549218 2.267000000000000
-0.626999521890581 1.017793097022083 2.239000000000000
-0.624199166723584 1.019356105742615 2.229000000000000
-0.642961546342463 1.068873368668570 2.296000000000000
-0.640441226692166 1.070951245046398 2.287000000000000
-0.641841404275664 1.079574047784787 2.292000000000000
-0.630920019124377 1.067378863535460 2.253000000000000
-0.656683286660747 1.130244679160066 2.345000000000000
-0.653042824943651 1.130369967606321 2.332000000000000
-0.645761901509460 1.124086997034690 2.306000000000000
-0.647722150126358 1.133838196039311 2.313000000000000
-0.646321972542859 1.137712447175282 2.308000000000000
-0.650242469776655 1.150977280575303 2.322000000000000
-0.653882931493750 1.163820426105688 2.335000000000000
-0.657243357694147 1.176233662020467 2.347000000000000
-0.661163854927942 1.189720482561677 2.361000000000000
-0.663124103544840 1.199737518019326 2.368000000000000
-0.674605559729527 1.227112062397571 2.409000000000000
-0.668724813878833 1.222959455830040 2.388000000000000
-0.670124991462332 1.232078303908618 2.393000000000000
-0.674325524212827 1.246400640199953 2.408000000000000
-0.674605559729527 1.253520310453128 2.409000000000000
-0.679366163513421 1.275663544230253 2.426000000000000
-0.666764565261936 1.258526520611917 2.381000000000000
-0.663964210094939 1.259738734837730 2.371000000000000
-0.659203606311044 1.257157775305164 2.354000000000000
-0.670965098012431 1.286154382464660 2.396000000000000
-0.665644423195137 1.282469691903773 2.377000000000000
-0.680206270063520 1.323839149761843 2.429000000000000
-0.673205382146028 1.323390516490082 2.404000000000000
-0.667884707328735 1.319467395296065 2.385000000000000
-0.681046376613619 1.352134573538037 2.432000000000000
-0.676845843863124 1.350418914400662 2.417000000000000
-0.694488081415204 1.392414726791381 2.480000000000000
-0.705689502083191 1.428685562065960 2.520000000000000
-0.772844751041596 -0.673152392802135 2.787000000000000
-0.762029915989345 -0.656201487587904 2.748000000000000
-0.744837101290896 -0.634035156185768 2.686000000000000
-0.745391708216652 -0.627140575412595 2.688000000000000
-0.743727887439383 -0.618390467159606 2.682000000000000
-0.745114404753774 -0.612179376572409 2.687000000000000
-0.746500922068165 -0.605940880165312 2.692000000000000
-0.739845638959088 -0.593226859895968 2.668000000000000
-0.727921590055324 -0.576471829557725 2.625000000000000
-0.726535072740933 -0.568193463163838 2.620000000000000
-0.737904514718940 -0.569792351583782 2.661000000000000
-0.730417321221228 -0.549573532555373 2.634000000000000
-0.733744962775767 -0.544825704466601 2.646000000000000
-0.732913052387132 -0.536964630048837 2.643000000000000
-0.735408783553036 -0.531525090028118 2.652000000000000
-0.738459121644697 -0.526431586851784 2.663000000000000
-0.742064066662113 -0.521667677027894 2.676000000000000
-0.734576873164401 -0.509144412227381 2.649000000000000
-0.736517997404549 -0.503210843934818 2.656000000000000
-0.743173280513626 -0.500413170140811 2.680000000000000
-0.738459121644697 -0.489940737655048 2.663000000000000
-0.739568335496209 -0.483367528488350 2.667000000000000
-0.747332832456799 -0.481056384733862 2.695000000000000
-0.755651936343146 -0.478943286396299 2.725000000000000
-0.756206543268902 -0.471821237317957 2.727000000000000
-0.744559797828017 -0.457196000942760 2.685000000000000
-0.746500922068165 -0.451010299107118 2.692000000000000
-0.758424970971928 -0.443223417724988 2.735000000000000
-0.757593060583294 -0.435249979445635 2.732000000000000
-0.758147667509050 -0.428075859309483 2.734000000000000
-0.758424970971928 -0.420736942497109 2.735000000000000
-0.759534184823441 -0.413845825819571 2.739000000000000
-0.760366095212076 -0.406784431301831 2.742000000000000
-0.760643398674954 -0.399415368087567 2.743000000000000
-0.761752612526467 -0.392469439770230 2.747000000000000
-0.762861826377980 -0.385501586796972 2.751000000000000
-0.764248343692371 -0.378649200024117 2.756000000000000
-0.768685199098422 -0.373250560449017 2.772000000000000
-0.771735537190083 -0.367104673788526 2.783000000000000
-0.750105867085582 0.036087819209287 2.705000000000000
-0.731803838535619 0.042439698974474 2.639000000000000
-0.725703162352298 0.049258003869702 2.617000000000000
-0.713779113448535 0.055502902276327 2.574000000000000
-0.713779113448535 0.062557160318565 2.574000000000000
-0.728198893518202 0.071017709640819 2.626000000000000
-0.713501809985657 0.076635891757974 2.573000000000000
-0.715720237688683 0.083947611034679 2.581000000000000
-0.711837989208387 0.090527331824186 2.567000000000000
-0.709896864968240 0.097296361055234 2.560000000000000
-0.692704050269790 0.101785938621926 2.498000000000000
-0.677452359811488 0.106240096906979 2.443000000000000
-0.698527422990233 0.116448677121073 2.519000000000000
-0.687989891400861 0.121491391831969 2.481000000000000
-0.714611023837170 0.140317348432113 2.577000000000000
-0.702132368007650 0.144806257296800 2.532000000000000
-0.684384946383444 0.147909823890201 2.468000000000000
-0.680225394440270 0.153733505807293 2.453000000000000
-0.682721125606175 0.161044863327176 2.462000000000000
-0.683830339457687 0.168064787358243 2.466000000000000
-0.684662249846322 0.175035742670313 2.469000000000000
-0.673847414794072 0.178930515284226 2.430000000000000
-0.686048767160713 0.188950609231376 2.474000000000000
-0.698527422990233 0.199290989514533 2.519000000000000
-0.667469435147872 0.203623257675000 2.407000000000000
-0.666082917833481 0.209783154190624 2.402000000000000
-0.668301345536507 0.217086651721360 2.410000000000000
-0.667469435147872 0.223413000224728 2.407000000000000
-0.681334608291783 0.234787511715988 2.457000000000000
-0.691872139881156 0.245256491068443 2.495000000000000
-0.674956628645584 0.245930816748245 2.434000000000000
-0.672738200942559 0.251771150441508 2.426000000000000
-0.688267194863739 0.264384975033298 2.482000000000000
-0.694090567584182 0.273481591510773 2.503000000000000
-0.692149443344034 0.279557253498353 2.496000000000000
-0.673292807868315 0.278595243445898 2.428000000000000
-0.676343145959975 0.293225971947403 2.439000000000000
-0.685494160234957 0.303968077700980 2.472000000000000
-0.686880677549348 0.311371321453824 2.477000000000000
-0.673570111331193 0.311994354401101 2.429000000000000
-0.668024042073629 0.316027504480852 2.409000000000000
-0.665805614370603 0.321558152409246 2.401000000000000
-0.657763813947135 0.324174936829585 2.372000000000000
-0.677452359811488 0.340573559961193 2.443000000000000
-0.673570111331193 0.345278722669546 2.429000000000000
-0.671351683628168 0.350776483614060 2.421000000000000
-0.675788539034219 0.366452305651628 2.437000000000000
-0.673570111331193 0.371906217284302 2.429000000000000
-0.662477972816065 0.372329034273718 2.389000000000000
-0.667192131684994 0.381572348623954 2.406000000000000
-0.672183594016802 0.391070175342436 2.424000000000000
-0.680502697903149 0.402635540963479 2.454000000000000
-0.675233932108463 0.412864785165778 2.435000000000000
-0.669133255925142 0.415747614323378 2.413000000000000
-0.670519773239533 0.423235816117911 2.418000000000000
-0.668024042073629 0.428262558716969 2.409000000000000
-0.671628987091046 0.437211337239576 2.422000000000000
-0.667192131684994 0.440916911035227 2.406000000000000
-0.656654600095622 0.440442834200271 2.368000000000000
-0.656099993169865 0.446555055551597 2.366000000000000
-0.663032579741821 0.457826247101835 2.391000000000000
-0.664141793593334 0.465155856897771 2.395000000000000
-0.656931903558500 0.466598586955926 2.369000000000000
-0.659427634724404 0.474888332246236 2.378000000000000
-0.663032579741821 0.484037173254112 2.391000000000000
-0.664696400519090 0.491820996146742 2.397000000000000
-0.663032579741821 0.497142636330251 2.391000000000000
-0.660536848575917 0.501799400360661 2.382000000000000
-0.658318420872891 0.506620237553647 2.374000000000000
-0.657763813947135 0.512694090757113 2.372000000000000
-0.663032579741821 0.523353562482529 2.391000000000000
-0.666637524759238 0.532787424017364 2.404000000000000
-0.666360221296360 0.539151417154947 2.403000000000000
-0.660814152038795 0.541194904709964 2.383000000000000
-0.657763813947135 0.545197393158411 2.372000000000000
-0.653604262003962 0.548209237953772 2.357000000000000
-0.657209207021378 0.557728057530297 2.370000000000000
-0.656099993169865 0.563270961341350 2.366000000000000
-0.654436172392596 0.568310321579891 2.360000000000000
-0.651385834300936 0.572099044633118 2.349000000000000
-0.654990779318353 0.581738449817203 2.362000000000000
-0.654158868929718 0.587464610864763 2.359000000000000
-0.653049655078205 0.592922556634127 2.355000000000000
-0.648890103135032 0.595558941696859 2.340000000000000
-0.654713475855474 0.607374215508405 2.361000000000000
-0.649444710060788 0.608904852474471 2.342000000000000
-0.646671675432006 0.612695954352866 2.332000000000000
-0.649444710060788 0.621741738515591 2.342000000000000
-0.651385834300936 0.630037688483526 2.349000000000000
-0.658318420872891 0.643249212082678 2.374000000000000
-0.655822689706987 0.647292085747329 2.365000000000000
-0.650831227375179 0.648797695718663 2.347000000000000
-0.643621337340346 0.647971223889105 2.321000000000000
-0.646948978894884 0.657715132945632 2.333000000000000
-0.649167406597910 0.666386180889374 2.341000000000000
-0.648612799672154 0.672227084623691 2.339000000000000
-0.645839765043371 0.675735906557116 2.329000000000000
-0.646117068506250 0.682411602527913 2.330000000000000
-0.644175944266102 0.686727810877918 2.323000000000000
-0.640293695785807 0.688917119319459 2.309000000000000
-0.642234820025955 0.697352838968883 2.316000000000000
-0.645285158117615 0.707042298142433 2.327000000000000
-0.642234820025955 0.710047214746523 2.316000000000000
-0.637243357694147 0.710826570490509 2.298000000000000
-0.639461785397172 0.719620944623800 2.306000000000000
-0.642789426951711 0.729718388757036 2.318000000000000
-0.649167406597910 0.743374610152212 2.341000000000000
-0.651663137763814 0.752672889614838 2.350000000000000
-0.652495048152449 0.760082338045307 2.353000000000000
-0.651385834300936 0.765227857467812 2.349000000000000
-0.651385834300936 0.771665484562302 2.349000000000000
-0.644730551191859 0.770153143721601 2.325000000000000
-0.639184481934294 0.769845211929205 2.305000000000000
-0.638352571545659 0.775152063932297 2.302000000000000
-0.638352571545659 0.781460883673257 2.302000000000000
-0.642789426951711 0.793245079285037 2.318000000000000
-0.646948978894884 0.804772021946581 2.333000000000000
-0.650276620449423 0.815338105600105 2.345000000000000
-0.649722013523666 0.821063904890843 2.343000000000000
-0.649167406597910 0.826778741853620 2.341000000000000
-0.650831227375179 0.835329927703447 2.347000000000000
-0.651663137763814 0.842838037085555 2.350000000000000
-0.647780889283519 0.844218873840049 2.336000000000000
-0.642234820025955 0.843338160411745 2.316000000000000
-0.644175944266102 0.852253481909418 2.323000000000000
-0.646394371969128 0.861576788366777 2.331000000000000
-0.641957516563076 0.862007366684389 2.315000000000000
-0.645839765043371 0.873603185652505 2.329000000000000
-0.654713475855474 0.892076834956671 2.361000000000000
-0.658595724335769 0.903875456992047 2.375000000000000
-0.661646062427430 0.914600856157814 2.386000000000000
-0.651940441226692 0.907627774154119 2.351000000000000
-0.653881565466840 0.916792488612882 2.358000000000000
-0.649722013523666 0.917381658929090 2.343000000000000
-0.645285158117615 0.917494329735863 2.327000000000000
-0.647226282357762 0.933047340813295 2.334000000000000
-0.648890103135032 0.941858881952171 2.340000000000000
-0.649444710060788 0.949082332564143 2.342000000000000
-0.637797964619903 0.938365407277890 2.300000000000000
-0.644175944266102 0.954115433313418 2.323000000000000
-0.645562461580493 0.962549135894498 2.328000000000000
-0.640016392322929 0.960605076654078 2.308000000000000
-0.633638412676730 0.957294552271120 2.285000000000000
-0.628646950344922 0.955966400464803 2.267000000000000
-0.634747626528243 0.971516725771885 2.289000000000000
-0.634193019602486 0.976935579879743 2.287000000000000
-0.640848302711563 0.993521121665397 2.311000000000000
-0.640016392322929 0.998556656051479 2.308000000000000
-0.621991667235845 0.976581518611292 2.243000000000000
-0.617000204904037 0.974842279506476 2.225000000000000
-0.615613687589646 0.978735714716377 2.220000000000000
-0.618664025681306 0.989699544515273 2.231000000000000
-0.622546274161601 1.002062726440587 2.245000000000000
-0.626151219179018 1.014053550972084 2.258000000000000
-0.624487398401749 1.017530779476330 2.252000000000000
-0.625319308790383 1.025066294678338 2.255000000000000
-0.631142681510826 1.040849931211392 2.276000000000000
-0.637520661157025 1.057668784223017 2.299000000000000
-0.610622225257838 1.019078112067879 2.202000000000000
-0.628092343419165 1.054441716042819 2.265000000000000
-0.637797964619903 1.077038855971454 2.300000000000000
-0.624487398401749 1.060733313966554 2.252000000000000
-0.627815039956287 1.072590211737364 2.264000000000000
-0.625596612253262 1.074982893287219 2.256000000000000
-0.638075268082781 1.109037529529771 2.301000000000000
-0.632806502288095 1.106133904836031 2.282000000000000
-0.644175944266102 1.132373848270419 2.323000000000000
-0.641957516563076 1.134818600878082 2.315000000000000
-0.644453247728980 1.145599535197294 2.324000000000000
-0.637243357694147 1.139080874574524 2.298000000000000
-0.645285158117615 1.159833032782842 2.327000000000000
-0.644453247728980 1.164706872831514 2.324000000000000
-0.646394371969128 1.174603322681604 2.331000000000000
-0.663864490130456 1.212910311713796 2.394000000000000
-0.648058192746397 1.196840974989449 2.337000000000000
-0.648058192746397 1.203245715100059 2.337000000000000
-0.651108530838058 1.215344145842811 2.348000000000000
-0.662200669353186 1.242592985206338 2.388000000000000
-0.674402021719828 1.272153428742127 2.432000000000000
-0.664419097056212 1.259888644672583 2.396000000000000
-0.662200669353186 1.262226514582637 2.388000000000000
-0.655268082781231 1.255488245643845 2.363000000000000
-0.654713475855474 1.260896137423743 2.361000000000000
-0.668301345536507 1.300274277445558 2.410000000000000
-0.670519773239533 1.324470722362601 2.418000000000000
-0.667746738610751 1.325592497382744 2.408000000000000
-0.687157981012226 1.370918325175534 2.478000000000000
-0.658595724335769 1.320443919470739 2.375000000000000
-0.664419097056212 1.338685858048815 2.396000000000000
-0.686880677549348 1.404307197316422 2.477000000000000
-0.694645174509938 1.427046639224306 2.505000000000000
-0.763857659995902 -0.671944727942426 2.782000000000000
-0.745735946998156 -0.648560131109442 2.716000000000000
-0.735576804863056 -0.632382793530034 2.679000000000000
-0.722946520046445 -0.614308457984137 2.633000000000000
-0.723495662864558 -0.607553646892454 2.635000000000000
-0.731458233727205 -0.606939285146594 2.664000000000000
-0.711689092275118 -0.576328343647057 2.592000000000000
-0.717729663274366 -0.574056138081483 2.614000000000000
-0.721573663001161 -0.569928405036093 2.628000000000000
-0.728163376818523 -0.567865207215404 2.652000000000000
-0.727065091182296 -0.559751637497739 2.648000000000000
-0.717455091865310 -0.545191966806071 2.613000000000000
-0.720475377364934 -0.540295785533016 2.624000000000000
-0.718827948910594 -0.531885509446786 2.618000000000000
-0.717180520456253 -0.523508120344436 2.612000000000000
-0.723221091455502 -0.520698760708824 2.634000000000000
-0.736400519090226 -0.522837335496566 2.682000000000000
-0.736125947681169 -0.515294892103287 2.681000000000000
-0.734478519226829 -0.499479563480101 2.675000000000000
-0.727614234000410 -0.487548987903071 2.650000000000000
-0.733929376408715 -0.484454969497322 2.673000000000000
-0.742990232907588 -0.483019880181755 2.706000000000000
-0.747108804043440 -0.478240250379571 2.721000000000000
-0.742166518680418 -0.467668795185345 2.703000000000000
-0.734753090635886 -0.455663500380941 2.676000000000000
-0.733380233590602 -0.447492016684663 2.671000000000000
-0.741617375862305 -0.445115822476061 2.701000000000000
-0.749305375315894 -0.442251081159595 2.729000000000000
-0.750952803770234 -0.435727925982362 2.735000000000000
-0.747108804043440 -0.426040385216205 2.721000000000000
-0.748481661088724 -0.419352433362749 2.726000000000000
-0.751501946588348 -0.413543638287027 2.737000000000000
-0.753423946451745 -0.407081137670396 2.744000000000000
-0.754522232087972 -0.400143431099028 2.748000000000000
-0.754796803497029 -0.392755183810834 2.749000000000000
-0.756169660542313 -0.385921981111909 2.754000000000000
-0.758366231814767 -0.379473545162051 2.762000000000000
-0.764406802814016 -0.374866363741004 2.784000000000000
-0.739420804589850 0.028547338072713 2.693000000000000
-0.724593948500786 0.035207303102887 2.639000000000000
-0.712787377911345 0.041748184364432 2.596000000000000
-0.711414520866061 0.048768623624913 2.591000000000000
-0.714709377774742 0.056128226350148 2.603000000000000
-0.718278806092480 0.070747269010047 2.616000000000000
-0.715807663410969 0.077648569690259 2.607000000000000
-0.708668806775493 0.083947611034679 2.581000000000000
-0.697960521822280 0.096612246016564 2.542000000000000
-0.674347380643399 0.100074565754784 2.456000000000000
-0.692743665050202 0.109719101308354 2.523000000000000
-0.696587664776996 0.117280783587203 2.537000000000000
-0.669130523871320 0.132694364815312 2.437000000000000
-0.681486237278874 0.141946734048442 2.482000000000000
-0.671327095143774 0.146531409810187 2.445000000000000
-0.675720237688682 0.154234878838870 2.461000000000000
-0.676269380506796 0.161110275538113 2.463000000000000
-0.672699952189058 0.166974342671410 2.450000000000000
-0.669679666689434 0.172908941422800 2.439000000000000
-0.676543951915853 0.188186863842406 2.464000000000000
-0.675445666279626 0.194623197382196 2.460000000000000
-0.663639095690185 0.197845233853861 2.417000000000000
-0.673523666416228 0.207514686778884 2.453000000000000
-0.668581381053207 0.212665270796906 2.435000000000000
-0.668306809644150 0.219248510493688 2.434000000000000
-0.680937094460761 0.230188716475831 2.480000000000000
-0.672425380780001 0.247446413400350 2.449000000000000
