# This PCD file was generated using the MATLAB® pcwrite function
# from Computer Vision Toolbox®.
# .PCD v.7 - Point Cloud Data file format
VERSION .7
FIELDS x y z
SIZE 8 8 8
TYPE F F F
COUNT 1 1 1
WIDTH 864
HEIGHT 1
VIEWPOINT 0 0 0 1 0 0 0
POINTS 864
DATA ascii
-0.711757393620654 0.159196614833126 2.162000000000000
-0.728876442865924 0.169093229118135 2.214000000000000
-0.727230380438495 0.174765302039541 2.209000000000000
-0.724596680554607 0.180164402032416 2.201000000000000
-0.724596680554607 0.186196422992387 2.201000000000000
-0.726571955467523 0.192752465153500 2.207000000000000
-0.737435967488560 0.201773485417363 2.240000000000000
-0.709123693736767 0.199930038422959 2.154000000000000
-0.708465268765795 0.205642134803747 2.152000000000000
-0.728876442865924 0.217634417324863 2.214000000000000
-0.709123693736767 0.217639679242284 2.154000000000000
-0.721962980670719 0.227590326841808 2.193000000000000
-0.716037155931972 0.231683046211693 2.175000000000000
-0.719987705757803 0.238954950313248 2.187000000000000
-0.723938255583635 0.246292628382563 2.199000000000000
-0.724925893040093 0.252663396238825 2.202000000000000
-0.712415818591626 0.254233793568402 2.164000000000000
-0.717024793388430 0.261847546905061 2.178000000000000
-0.726901167953009 0.271505467461070 2.208000000000000
-0.725255105525579 0.276928147421386 2.203000000000000
-0.722621405641691 0.281938084771682 2.195000000000000
-0.706160781367393 0.281394353304868 2.145000000000000
-0.705831568881907 0.287138974912712 2.144000000000000
-0.696942831773786 0.289324764446978 2.117000000000000
-0.700564169114132 0.296660063691125 2.128000000000000
-0.698259681715730 0.301496982619229 2.121000000000000
-0.715049518475514 0.314699100540991 2.172000000000000
-0.703197868998019 0.315336976480325 2.136000000000000
-0.704843931425449 0.321942710874081 2.141000000000000
-0.711428181135168 0.330872513606990 2.161000000000000
-0.709452906222253 0.335859802787720 2.155000000000000
-0.712745031077112 0.343351676962120 2.165000000000000
-0.695955194317328 0.346850665687365 2.114000000000000
-0.680152995014002 0.344637196275001 2.066000000000000
-0.689370944607609 0.355046759809913 2.094000000000000
-0.694309131889898 0.363369962125157 2.109000000000000
-0.695296769346356 0.369674956013659 2.112000000000000
-0.684432757325319 0.369596454783138 2.079000000000000
-0.688054094665665 0.377279807940014 2.090000000000000
-0.698918106686702 0.389055113103819 2.123000000000000
-0.695625981831842 0.393013390483603 2.113000000000000
-0.702868656512533 0.402956485039163 2.135000000000000
-0.702539444027047 0.408616148605318 2.134000000000000
-0.699576531657674 0.412716574491759 2.125000000000000
-0.689370944607609 0.412434546680333 2.094000000000000
-0.684103544839833 0.414978113712228 2.078000000000000
-0.672910320333311 0.413790038532583 2.044000000000000
-0.679823782528516 0.423700607861085 2.065000000000000
-0.692333856976983 0.443024407623203 2.103000000000000
-0.681799057441432 0.441958935119462 2.071000000000000
-0.687066457209207 0.451092987946920 2.087000000000000
-0.688712519636637 0.457907006571916 2.092000000000000
-0.692004644491497 0.465856557938644 2.102000000000000
-0.684103544839833 0.466232478089047 2.078000000000000
-0.690687794549553 0.476469538431181 2.098000000000000
-0.689041732122123 0.481070043794500 2.093000000000000
-0.690029369578581 0.487503845036532 2.096000000000000
-0.697272044259272 0.498425327362519 2.118000000000000
-0.701222594085103 0.507086706532999 2.130000000000000
-0.686408032238235 0.502087720548336 2.085000000000000
-0.694638344375384 0.513890585004631 2.110000000000000
-0.709123693736767 0.530510000383681 2.154000000000000
-0.693321494433440 0.524459716185329 2.106000000000000
-0.685091182296291 0.523937087199838 2.081000000000000
-0.679494570043030 0.525313528060819 2.064000000000000
-0.672581107847825 0.525567777333194 2.043000000000000
-0.681799057441432 0.538446605241089 2.071000000000000
-0.675873232702684 0.539393136486464 2.053000000000000
-0.673568745304283 0.543161228438471 2.046000000000000
-0.675873232702684 0.550645966137369 2.053000000000000
-0.690029369578581 0.567923482950839 2.096000000000000
-0.691017007035039 0.574488832128391 2.099000000000000
-0.694967556860870 0.583558558015380 2.111000000000000
-0.696613619288300 0.590739814627034 2.116000000000000
-0.693979919404412 0.594283540612685 2.108000000000000
-0.691346219520525 0.597783417286495 2.100000000000000
-0.706819206338365 0.617046409015419 2.147000000000000
-0.695625981831842 0.613065680787972 2.113000000000000
-0.682457482412404 0.607141309888568 2.073000000000000
-0.685091182296291 0.615187505138591 2.081000000000000
-0.690029369578581 0.625366081461059 2.096000000000000
-0.685749607267263 0.632904644190240 2.083000000000000
-0.685420394781777 0.638306693049336 2.082000000000000
-0.692992281947954 0.651127036937564 2.105000000000000
-0.692663069462468 0.656583897436460 2.104000000000000
-0.692992281947954 0.668433812204360 2.105000000000000
-0.697601256744758 0.678686745997380 2.119000000000000
-0.686078819752749 0.673188097104301 2.084000000000000
-0.686078819752749 0.678899469971443 2.084000000000000
-0.683774332354347 0.688003475057963 2.077000000000000
-0.690029369578581 0.700041459524344 2.096000000000000
-0.688383307151151 0.704102070235635 2.091000000000000
-0.686737244723721 0.708135275127026 2.086000000000000
-0.678506932586572 0.705296854359992 2.061000000000000
-0.684761969810805 0.717499273745772 2.080000000000000
-0.698259681715730 0.743267837077882 2.121000000000000
-0.686078819752749 0.736013198642864 2.084000000000000
-0.685091182296291 0.740656829804377 2.081000000000000
-0.685091182296291 0.746359980925549 2.081000000000000
-0.679165357557544 0.745558020861310 2.063000000000000
-0.679823782528516 0.751940112802355 2.065000000000000
-0.674227170275254 0.751362518704472 2.048000000000000
-0.668630558021993 0.750691744818930 2.031000000000000
-0.659741820913872 0.751696343515509 2.004000000000000
-0.654474421146097 0.751143052898713 1.988000000000000
-0.650523871320265 0.752024380217383 1.976000000000000
-0.653815996175125 0.761272967447367 1.986000000000000
-0.664350795710676 0.779069693000006 2.018000000000000
-0.658754183457414 0.777990572397954 2.001000000000000
-0.657108121029984 0.781516769621197 1.996000000000000
-0.656778908544498 0.786592689223483 1.995000000000000
-0.656120483573526 0.791266105030064 1.993000000000000
-0.663033945768732 0.805123112424154 2.014000000000000
-0.674885595246226 0.825132781197415 2.050000000000000
-0.684103544839833 0.842097816852387 2.078000000000000
-0.669618195478451 0.829841408001403 2.034000000000000
-0.664350795710676 0.828844143102229 2.018000000000000
-0.664021583225190 0.833961171434366 2.017000000000000
-0.669288982992965 0.846148232598675 2.033000000000000
-0.688712519636637 0.876437725755441 2.092000000000000
-0.697601256744758 0.899363888995467 2.119000000000000
-0.679823782528516 0.882104054416996 2.065000000000000
-0.681140632470460 0.889482994688752 2.069000000000000
-0.683774332354347 0.898614460406812 2.077000000000000
-0.675544020217198 0.893421879710375 2.052000000000000
-0.692663069462468 0.921828384755787 2.104000000000000
-0.700564169114132 0.938175495908311 2.128000000000000
-0.693650706918926 0.934691591346338 2.107000000000000
-0.708136056280309 0.960105534331271 2.151000000000000
-0.696613619288300 0.950282247057985 2.116000000000000
-0.687724882180179 0.943881793217608 2.089000000000000
-0.706819206338365 0.981856240031133 2.147000000000000
-0.704185506454477 0.984059821423678 2.139000000000000
-0.698588894201216 0.982054384109009 2.122000000000000
-0.698588894201216 0.987869899091771 2.122000000000000
-0.695955194317328 0.989939191966806 2.114000000000000
-0.702210231541561 1.004682130857309 2.133000000000000
-0.705173143910935 1.014791622588973 2.142000000000000
-0.704843931425449 1.020185449702099 2.141000000000000
-0.703856293968991 1.024615315468393 2.138000000000000
-0.700893381599618 1.026136853702252 2.129000000000000
-0.698259681715730 1.028093782715697 2.121000000000000
-0.700234956628646 1.036831328140844 2.127000000000000
-0.706819206338365 1.052464594421271 2.147000000000000
-0.708794481251281 1.061306281962037 2.153000000000000
-0.711428181135168 1.071172223653415 2.161000000000000
-0.707806843794823 1.071611955514873 2.150000000000000
-0.710769756164197 1.082014689519466 2.159000000000000
-0.711098968649682 1.088435511365193 2.160000000000000
-0.712415818591626 1.096381752108878 2.164000000000000
-0.708794481251281 1.096709120108746 2.153000000000000
-0.707148418823851 1.100048957756669 2.148000000000000
-0.707477631309337 1.106450595528466 2.149000000000000
-0.714061881019056 1.122692271010672 2.169000000000000
-0.717354005873916 1.133840081559720 2.179000000000000
-0.716695580902944 1.138765630909380 2.177000000000000
-0.709452906222253 1.133163618225967 2.155000000000000
-0.710440543678710 1.140655284116135 2.158000000000000
-0.712415818591626 1.149757326945950 2.164000000000000
-0.719987705757803 1.167971136190481 2.187000000000000
-0.744701864626733 -0.888505155034723 2.281000000000000
-0.752210914555017 -0.891149915316017 2.304000000000000
-0.742416501605082 -0.873314317348432 2.274000000000000
-0.731969127791817 -0.854880548993384 2.242000000000000
-0.731316166928489 -0.847979040028941 2.240000000000000
-0.728377843043508 -0.838457742966296 2.231000000000000
-0.722827675705211 -0.826001129119780 2.214000000000000
-0.724786558295199 -0.822155522546768 2.220000000000000
-0.726745440885185 -0.818277028989876 2.226000000000000
-0.724460077863534 -0.809622479349715 2.219000000000000
-0.720215832251895 -0.798833586380404 2.206000000000000
-0.720215832251895 -0.792787862510483 2.206000000000000
-0.725113038726863 -0.792091699873385 2.221000000000000
-0.724133597431869 -0.784943176773020 2.218000000000000
-0.721848234410218 -0.776406472158428 2.211000000000000
-0.724133597431869 -0.772785955065418 2.218000000000000
-0.724460077863534 -0.767053019299178 2.219000000000000
-0.719889351820231 -0.756170584785385 2.205000000000000
-0.709441978006967 -0.739241395942842 2.173000000000000
-0.709115497575302 -0.732948657937000 2.172000000000000
-0.726745440885185 -0.745070602873226 2.226000000000000
-0.727071921316850 -0.739302039541117 2.227000000000000
-0.723154156136876 -0.729247984301946 2.215000000000000
-0.717603988798579 -0.717627247962377 2.198000000000000
-0.720215832251895 -0.714193452201510 2.206000000000000
-0.729683764770166 -0.717457013971487 2.235000000000000
-0.727724882180179 -0.709422197617886 2.229000000000000
-0.727398401748515 -0.702997911676524 2.228000000000000
-0.726745440885185 -0.696266318795459 2.226000000000000
-0.722501195273547 -0.686135165503746 2.213000000000000
-0.730989686496824 -0.688060237992140 2.239000000000000
-0.715971586640257 -0.667914022461810 2.193000000000000
-0.726092480021857 -0.671260525205133 2.224000000000000
-0.725439519158527 -0.664567300471928 2.222000000000000
-0.705197732395328 -0.640104361362179 2.160000000000000
-0.722501195273547 -0.649745717840641 2.213000000000000
-0.708136056280309 -0.630882818195272 2.169000000000000
-0.714012704050270 -0.630124707442873 2.187000000000000
-0.729683764770166 -0.637829404252287 2.235000000000000
-0.731642647360153 -0.633400053715407 2.241000000000000
-0.731642647360153 -0.627258409475836 2.241000000000000
-0.739151697288437 -0.627491457605937 2.264000000000000
-0.747966668943378 -0.628696118787786 2.291000000000000
-0.745028345058398 -0.619972331084229 2.282000000000000
-0.750578512396694 -0.618290282444380 2.299000000000000
-0.756455160166655 -0.616781252226723 2.317000000000000
-0.761025886209958 -0.614119730545979 2.331000000000000
-0.761352366641623 -0.607992150973181 2.332000000000000
-0.767881975274913 -0.606760643050158 2.352000000000000
-0.802815381463015 -0.162627746748299 2.459000000000000
-0.752537394986681 -0.139808762188738 2.305000000000000
-0.746987227648385 -0.132507183065396 2.288000000000000
-0.749925551533365 -0.120438175210888 2.297000000000000
-0.758414042756642 -0.115435056428583 2.323000000000000
-0.750904992828359 -0.107988796500825 2.300000000000000
-0.753190355850010 -0.101994935404483 2.307000000000000
-0.756781640598320 -0.096128588106970 2.318000000000000
-0.733928010381805 -0.087064825726391 2.248000000000000
-0.744375384195069 -0.075807128801872 2.280000000000000
-0.747966668943378 -0.069894191610530 2.291000000000000
-0.751884434123352 -0.057637168869181 2.303000000000000
-0.747313708080049 -0.051013598767834 2.289000000000000
-0.733601529950140 -0.037761393969623 2.247000000000000
-0.729683764770166 -0.031434530236841 2.235000000000000
-0.721195273546889 -0.025014903284862 2.209000000000000
-0.738172255993443 -0.019407299814189 2.261000000000000
-0.733601529950140 -0.013129043043581 2.247000000000000
-0.735233932108463 -0.006986467006133 2.252000000000000
-0.728377843043508 -0.000807079471397 2.231000000000000
-0.724460077863534 0.005278613046266 2.219000000000000
-0.726745440885185 0.011395800332159 2.226000000000000
-0.730010245201831 0.017574935733352 2.236000000000000
-0.733928010381805 0.023830083916621 2.248000000000000
-0.733928010381805 0.029990912230121 2.248000000000000
-0.728051362611844 0.035862269311511 2.230000000000000
-0.725439519158527 0.041823188612334 2.222000000000000
-0.724460077863534 0.047848073096803 2.219000000000000
-0.726092480021857 0.054050941938030 2.224000000000000
-0.724133597431869 0.059983731905307 2.218000000000000
-0.739804658151766 0.067492005722335 2.266000000000000
-0.709768458438631 0.076667868868633 2.174000000000000
-0.716298067071921 0.083386021935618 2.194000000000000
-0.746334266785056 0.093147580340161 2.286000000000000
-0.748619629806707 0.099716963654402 2.293000000000000
-0.720542312683560 0.102025498374835 2.207000000000000
-0.741437060310088 0.111207960842564 2.271000000000000
-0.739151697288437 0.117069857434925 2.264000000000000
-0.726092480021857 0.121096539741179 2.224000000000000
-0.734254490813469 0.128621355711099 2.249000000000000
-0.723480636568540 0.132807200057004 2.216000000000000
-0.703565330237006 0.135057360381050 2.155000000000000
-0.744701864626733 0.155456520666729 2.281000000000000
-0.704544771531999 0.152987903071096 2.158000000000000
-0.713686223618605 0.166954742029017 2.186000000000000
-0.712706782323612 0.172708308896477 2.183000000000000
-0.712053821460283 0.178527287974874 2.181000000000000
-0.714012704050270 0.185012075004248 2.187000000000000
-0.720542312683560 0.198800929605411 2.207000000000000
-0.716624547503586 0.203735577687278 2.195000000000000
-0.709115497575302 0.207553307060287 2.172000000000000
-0.696382760740387 0.209672182544685 2.133000000000000
-0.718909910525237 0.222489588529020 2.202000000000000
-0.713033262755276 0.226656303612635 2.184000000000000
-0.717277508366915 0.234026506909007 2.197000000000000
-0.709115497575302 0.237316027471594 2.172000000000000
-0.709768458438631 0.243492575763389 2.174000000000000
-0.714012704050270 0.250942255937471 2.187000000000000
-0.701606447647019 0.252471544537198 2.149000000000000
-0.709115497575302 0.261126203800639 2.172000000000000
-0.711400860596954 0.267939498911989 2.179000000000000
-0.721195273546889 0.277682377509688 2.209000000000000
-0.711727341028618 0.280011400821078 2.180000000000000
-0.698341643330374 0.280607236232686 2.139000000000000
-0.698015162898709 0.286335414348591 2.138000000000000
-0.703565330237006 0.294518123468700 2.155000000000000
-0.695403319445393 0.296938879540459 2.130000000000000
-0.694750358582064 0.302492022165827 2.128000000000000
-0.708789017143638 0.314554211452344 2.171000000000000
-0.702912369373677 0.317846680881152 2.153000000000000
-0.699647565057032 0.322243451379335 2.143000000000000
-0.710421419301960 0.333169176126242 2.176000000000000
-0.707483095416980 0.337730019787002 2.167000000000000
-0.700953486783690 0.340497020987377 2.147000000000000
-0.705850693258657 0.348801039228691 2.162000000000000
-0.668305443617239 0.341467735128232 2.047000000000000
-0.696709241172051 0.367677334838826 2.134000000000000
-0.681691141315484 0.365474104240777 2.088000000000000
-0.683323543473806 0.372085319798512 2.093000000000000
-0.680385219588826 0.376196708012914 2.084000000000000
-0.694097397718735 0.389604884813339 2.126000000000000
-0.682997063042142 0.389107436295172 2.092000000000000
-0.696382760740387 0.402579008238189 2.133000000000000
-0.691485554265419 0.405552484885690 2.118000000000000
-0.689853152107097 0.410385939718159 2.113000000000000
-0.674182091387200 0.406722702433089 2.065000000000000
-0.681691141315484 0.416975120996695 2.088000000000000
-0.681364660883820 0.422495014881360 2.087000000000000
-0.678426336998839 0.426367972462632 2.078000000000000
-0.679732258725497 0.432894591735501 2.082000000000000
-0.682344102178813 0.440285787889916 2.090000000000000
-0.681364660883820 0.445373393333808 2.087000000000000
-0.674835052250529 0.446770103539188 2.067000000000000
-0.656225667645653 0.439958452777032 2.010000000000000
-0.690832593402090 0.468959313319777 2.116000000000000
-0.694423878150400 0.477226410440521 2.127000000000000
-0.685608906495458 0.476923751527874 2.100000000000000
-0.679405778293832 0.478311878230461 2.081000000000000
-0.676467454408852 0.481921739940694 2.072000000000000
-0.680058739157162 0.490188837061438 2.083000000000000
-0.683323543473806 0.498278158109656 2.093000000000000
-0.685935386927123 0.505940671881081 2.101000000000000
-0.678426336998839 0.506096983715462 2.078000000000000
-0.686261867358787 0.517702888025301 2.102000000000000
-0.690832593402090 0.526950028227995 2.116000000000000
-0.690506112970426 0.532497327932560 2.115000000000000
-0.679732258725497 0.529894750689256 2.082000000000000
-0.681038180452155 0.536629654193364 2.086000000000000
-0.678752817430503 0.540526553498901 2.079000000000000
-0.670590806638891 0.539655870600681 2.054000000000000
-0.677446895703846 0.550859994628459 2.075000000000000
-0.656552148077317 0.539380924453117 2.011000000000000
-0.673529130523871 0.558981939564686 2.063000000000000
-0.682344102178813 0.572025564148803 2.090000000000000
-0.668631924048904 0.566143025492894 2.048000000000000
-0.680058739157162 0.581526953623872 2.083000000000000
-0.691159073833755 0.596820804306002 2.117000000000000
-0.684302984768800 0.596644782205949 2.096000000000000
-0.681038180452155 0.599515048535707 2.086000000000000
-0.685282426063794 0.609003721710342 2.099000000000000
-0.686261867358787 0.615634844855653 2.102000000000000
-0.678099856567174 0.614005020746206 2.077000000000000
-0.682017621747149 0.623277549700454 2.089000000000000
-0.682670582610478 0.629604830001699 2.091000000000000
-0.680058739157162 0.632904644190240 2.083000000000000
-0.676467454408852 0.635240858788772 2.072000000000000
-0.682997063042142 0.652839122356023 2.092000000000000
-0.683976504337136 0.659516835395164 2.095000000000000
-0.676467454408852 0.657954802321821 2.072000000000000
-0.675488013113858 0.662672429197064 2.069000000000000
-0.680058739157162 0.672865070186305 2.083000000000000
-0.680385219588826 0.678899469971443 2.084000000000000
-0.674835052250529 0.679026205444988 2.067000000000000
-0.662755276278943 0.672434787851548 2.030000000000000
-0.675814493545523 0.691357739129481 2.070000000000000
-0.691159073833755 0.712857045762238 2.117000000000000
-0.683323543473806 0.710511567996580 2.093000000000000
-0.678752817430503 0.711456652214664 2.079000000000000
-0.681691141315484 0.720258886337103 2.088000000000000
-0.682017621747149 0.726328913688111 2.089000000000000
-0.672876169660542 0.722241872804109 2.061000000000000
-0.680385219588826 0.736013198642864 2.084000000000000
-0.682670582610478 0.744215968823139 2.091000000000000
-0.676140973977187 0.742773436086887 2.071000000000000
-0.677120415272181 0.749533366585728 2.074000000000000
-0.670917287070555 0.748298756323893 2.055000000000000
-0.669611365343897 0.752463147393981 2.051000000000000
-0.658184550235640 0.745147492641537 2.016000000000000
-0.654266785055666 0.746204217207566 2.004000000000000
-0.653287343760672 0.750571049588090 2.001000000000000
-0.651981422034014 0.754543599918879 1.997000000000000
-0.647737176422375 0.755069013335672 1.984000000000000
-0.657531589372311 0.772005919657098 2.014000000000000
-0.657858069803975 0.777911512088707 2.015000000000000
-0.672223208797213 0.800541023771808 2.059000000000000
-0.671570247933884 0.805400799153708 2.057000000000000
-0.651654941602350 0.786986971273219 1.996000000000000
-0.647410695990711 0.787295878712803 1.983000000000000
-0.670590806638891 0.821113640972797 2.054000000000000
-0.666020080595588 0.821107743240355 2.040000000000000
-0.660796393688956 0.820214620456800 2.024000000000000
-0.654919745918995 0.818417829130194 2.006000000000000
-0.653287343760672 0.821861808893737 2.001000000000000
-0.654593265487330 0.828999577950373 2.005000000000000
-0.664387678437265 0.846980646009987 2.035000000000000
-0.671896728365549 0.862193517975477 2.058000000000000
-0.673855610955536 0.870363762928695 2.064000000000000
-0.680058739157162 0.884084464736932 2.083000000000000
-0.695076839013729 0.909442872568418 2.129000000000000
-0.680058739157162 0.895501729307236 2.083000000000000
-0.686914828222116 0.910296015741903 2.104000000000000
-0.679079297862168 0.905612821538782 2.080000000000000
-0.688547230380439 0.924019041563666 2.109000000000000
-0.685282426063794 0.925390209544899 2.099000000000000
-0.678426336998839 0.921826828105216 2.078000000000000
-0.689200191243768 0.948036778610306 2.111000000000000
-0.679732258725497 0.940718953316926 2.082000000000000
-0.681364660883820 0.948697719287668 2.087000000000000
-0.691812034697084 0.969051407836968 2.119000000000000
-0.699321084625367 0.985439989476165 2.142000000000000
-0.695403319445393 0.985756756904896 2.130000000000000
-0.692464995560413 0.987404361910295 2.121000000000000
-0.692138515128748 0.992748858547601 2.120000000000000
-0.694423878150400 1.001856020784574 2.127000000000000
-0.694097397718735 1.007211479749839 2.126000000000000
-0.695729799877058 1.015420454607741 2.131000000000000
-0.693444436855406 1.017905954188431 2.124000000000000
-0.692791475992077 1.022762988988341 2.122000000000000
-0.692138515128748 1.027609061460292 2.120000000000000
-0.694097397718735 1.036343866303448 2.126000000000000
-0.695729799877058 1.044621355711099 2.131000000000000
-0.698668123762038 1.054898022944152 2.140000000000000
-0.697688682467045 1.059275817652637 2.137000000000000
-0.697362202035380 1.064634017199892 2.136000000000000
-0.700300525920361 1.074998383056626 2.145000000000000
-0.702912369373677 1.084908174059843 2.153000000000000
-0.703565330237006 1.091821938906946 2.155000000000000
-0.701932928078683 1.095180960628799 2.150000000000000
-0.698668123762038 1.095951941154223 2.140000000000000
-0.698994604193703 1.102331654270101 2.141000000000000
-0.703891810668670 1.115963363899958 2.156000000000000
-0.705850693258657 1.124994151598033 2.162000000000000
-0.698994604193703 1.119934412391816 2.141000000000000
-0.695403319445393 1.120017868594575 2.130000000000000
-0.702912369373677 1.138012431279906 2.153000000000000
-0.712706782323612 1.159852238781427 2.183000000000000
-0.712706782323612 1.165834929265579 2.183000000000000
-0.702912369373677 1.155713850353261 2.153000000000000
-0.743326275527628 -0.888055644776725 2.296000000000000
-0.740736288504884 -0.878690922644333 2.288000000000000
-0.728110101769005 -0.857549667567405 2.249000000000000
-0.721311385834301 -0.843436295171643 2.228000000000000
-0.714836418277440 -0.829813848708912 2.208000000000000
-0.716131411788812 -0.825254967304857 2.212000000000000
-0.718397650433714 -0.821785182221296 2.219000000000000
-0.724548869612731 -0.822688225911654 2.238000000000000
-0.722282630967830 -0.814000789287613 2.231000000000000
-0.717750153678027 -0.802816890754921 2.217000000000000
-0.718397650433714 -0.797459776478133 2.219000000000000
-0.720016392322929 -0.793161612119950 2.224000000000000
-0.719045147189400 -0.786004867273614 2.221000000000000
-0.718721398811557 -0.779566878422302 2.220000000000000
-0.716455160166655 -0.771043876717660 2.213000000000000
-0.717426405300184 -0.766015994036494 2.216000000000000
-0.713865173143911 -0.756170584785385 2.205000000000000
-0.725843863124104 -0.762714776669974 2.242000000000000
-0.717426405300184 -0.747796604967031 2.216000000000000
-0.716455160166655 -0.740719336998405 2.213000000000000
-0.720340140700772 -0.738638095185894 2.225000000000000
-0.719692643945086 -0.731881837066919 2.223000000000000
-0.714188921521754 -0.720239176071431 2.206000000000000
-0.715483915033126 -0.715488453928076 2.210000000000000
-0.718397650433714 -0.712320856377060 2.219000000000000
-0.722606379345673 -0.710377005420871 2.232000000000000
-0.722930127723516 -0.704575555104882 2.233000000000000
-0.718073902055871 -0.693764013966006 2.218000000000000
-0.714512669899597 -0.684274880373596 2.207000000000000
-0.710627689365480 -0.674538732645265 2.195000000000000
-0.711922682876853 -0.669741420608080 2.199000000000000
-0.710627689365480 -0.662507577709202 2.195000000000000
-0.722606379345673 -0.655324194405924 2.232000000000000
-0.714512669899597 -0.641935629210219 2.207000000000000
-0.728433850146848 -0.642110138509014 2.250000000000000
-0.735232566081552 -0.641879304769161 2.271000000000000
-0.733937572570180 -0.634535838590683 2.267000000000000
-0.736527559592924 -0.630540223521867 2.275000000000000
-0.739441294993512 -0.626775179097033 2.284000000000000
-0.732642579058807 -0.614810422981424 2.263000000000000
-0.733613824192337 -0.609415302313599 2.266000000000000
-0.742678778771942 -0.610658693400130 2.294000000000000
-0.758542449286251 -0.617281222080321 2.343000000000000
-0.765988661976641 -0.616856530532824 2.366000000000000
-0.768254900621542 -0.612178148791677 2.373000000000000
-0.782176080868793 -0.616649890650779 2.416000000000000
-0.737822553104296 -0.138231743613074 2.279000000000000
-0.739441294993512 -0.132275527150946 2.284000000000000
-0.733937572570180 -0.118865190771912 2.267000000000000
-0.718397650433714 -0.110267064233761 2.219000000000000
-0.725843863124104 -0.105265600762978 2.242000000000000
-0.735556314459395 -0.100447548001294 2.272000000000000
-0.744297520661157 -0.095340648860192 2.299000000000000
-0.704152721808620 -0.078276776856333 2.175000000000000
-0.725843863124104 -0.068399291833614 2.242000000000000
-0.720987637456458 -0.061838393361214 2.227000000000000
-0.740088791749198 -0.050946739529607 2.286000000000000
-0.733937572570180 -0.044310398316186 2.267000000000000
-0.731347585547435 -0.037963056954775 2.259000000000000
-0.714512669899597 -0.031040719567207 2.207000000000000
-0.724548869612731 -0.025343301743558 2.238000000000000
-0.726167611501947 -0.019252796763921 2.243000000000000
-0.732966327436651 -0.013228372697226 2.264000000000000
-0.724872617990574 -0.006946136601569 2.239000000000000
-0.722282630967830 -0.000807079471397 2.231000000000000
-0.719368895567243 0.005285749521768 2.222000000000000
-0.719045147189400 0.011370203296372 2.221000000000000
-0.719045147189400 0.017457035896143 2.221000000000000
-0.722282630967830 0.023649874207287 2.231000000000000
-0.725520114746261 0.029897524158230 2.241000000000000
-0.709332695854108 0.035235081641937 2.191000000000000
-0.715160166655283 0.041578498489939 2.209000000000000
-0.723901372857045 0.048214642381456 2.236000000000000
-0.716778908544498 0.059875555652998 2.214000000000000
-0.720016392322929 0.066241050629512 2.224000000000000
-0.720016392322929 0.072336104975253 2.224000000000000
-0.704476470186463 0.076738400486727 2.176000000000000
-0.722930127723516 0.084868271186069 2.233000000000000
-0.726815108257633 0.091476954446046 2.245000000000000
-0.736851307970767 0.098977675219109 2.276000000000000
-0.731347585547435 0.104429361499208 2.259000000000000
-0.713541424766068 0.113967299375695 2.204000000000000
-0.702857728297248 0.118210695943391 2.171000000000000
-0.719692643945086 0.127134403621953 2.223000000000000
-0.716455160166655 0.132627406916133 2.213000000000000
-0.706742708831364 0.136812165991570 2.183000000000000
-0.700591489652346 0.141552024467916 2.164000000000000
-0.705771463697835 0.148573088581091 2.180000000000000
-0.728433850146848 0.159510093563469 2.250000000000000
-0.709980192609794 0.167489363801297 2.193000000000000
-0.707066457209207 0.172787424017364 2.184000000000000
-0.707066457209207 0.178772855083505 2.184000000000000
-0.706742708831364 0.184673689864780 2.183000000000000
-0.696706509118230 0.187948937476362 2.152000000000000
-0.709008947476265 0.203271487533092 2.190000000000000
-0.707713953964893 0.208891127639866 2.186000000000000
-0.714188921521754 0.216848023766327 2.206000000000000
-0.702533979919404 0.219256315671196 2.170000000000000
-0.706418960453521 0.232428692797202 2.182000000000000
-0.694116522095485 0.234256704833838 2.144000000000000
-0.692174031828427 0.245319864286380 2.138000000000000
-0.700267741274503 0.254116310299655 2.163000000000000
-0.698001502629602 0.259202622188848 2.156000000000000
-0.701238986408032 0.266340961286539 2.166000000000000
-0.700591489652346 0.272025651847426 2.164000000000000
-0.693145276961956 0.275002022549509 2.141000000000000
-0.694116522095485 0.281263167126171 2.144000000000000
-0.692174031828427 0.286335414348591 2.138000000000000
-0.684727819138037 0.289051429761624 2.115000000000000
-0.701562734785875 0.302096972753134 2.167000000000000
-0.694764018851171 0.316813273186694 2.146000000000000
-0.682785328870979 0.317130862790022 2.109000000000000
-0.680195341848234 0.321685863529979 2.101000000000000
-0.686670309405095 0.330560854623088 2.121000000000000
-0.694116522095485 0.345897052778128 2.144000000000000
-0.680842838603921 0.345045860899021 2.103000000000000
-0.692497780206270 0.356814599628377 2.139000000000000
-0.706095212075678 0.369797986220354 2.181000000000000
-0.691202786694898 0.367849629747373 2.135000000000000
-0.688289051294311 0.372125452881174 2.126000000000000
-0.692174031828427 0.380085243062217 2.138000000000000
-0.672101632402158 0.374752574776780 2.076000000000000
-0.667892903490199 0.378059678913414 2.063000000000000
-0.693792773717642 0.398593325038505 2.143000000000000
-0.683756574004508 0.398615501827968 2.112000000000000
-0.684404070760194 0.404786568955783 2.114000000000000
-0.675662864558432 0.405336231042024 2.087000000000000
-0.677281606447647 0.412040626387420 2.092000000000000
-0.681490335359607 0.420370033380289 2.105000000000000
-0.684727819138037 0.433959702482419 2.115000000000000
-0.684727819138037 0.439756033391251 2.115000000000000
-0.682461580493136 0.444077722905236 2.108000000000000
-0.684727819138037 0.451348695208915 2.115000000000000
-0.670806638890786 0.447850824641121 2.072000000000000
-0.661741684311181 0.447400536057837 2.044000000000000
-0.670159142135100 0.458764545638912 2.070000000000000
-0.690231541561369 0.478348240272304 2.132000000000000
-0.681490335359607 0.478059284269607 2.105000000000000
-0.676310361314118 0.480150655273154 2.089000000000000
-0.666597909978827 0.478898099680448 2.059000000000000
-0.668216651868042 0.485717599469423 2.064000000000000
-0.668540400245885 0.491612229573072 2.065000000000000
-0.658827948910594 0.490047247633507 2.035000000000000
-0.673396625913531 0.506584083796035 2.080000000000000
-0.680842838603921 0.517949178647578 2.103000000000000
-0.680842838603921 0.523712622572529 2.103000000000000
-0.675662864558432 0.525447717917377 2.087000000000000
-0.676634109691961 0.531930849635228 2.090000000000000
-0.675986612936275 0.537144160093837 2.088000000000000
-0.674044122669217 0.541306534095580 2.082000000000000
-0.663036677822553 0.538079465915382 2.048000000000000
-0.663360426200396 0.543957652527091 2.049000000000000
-0.676310361314118 0.560301716152442 2.089000000000000
-0.676634109691961 0.566297747789721 2.090000000000000
-0.668540400245885 0.565183153094391 2.065000000000000
-0.670482890512943 0.572501077048722 2.071000000000000
-0.671777884024315 0.584980240403852 2.075000000000000
-0.679224096714705 0.597214099746222 2.098000000000000
-0.672425380780001 0.596928454366569 2.077000000000000
-0.672101632402158 0.602330503225665 2.076000000000000
-0.679547845092548 0.614756203307334 2.099000000000000
-0.680195341848234 0.621099927100519 2.101000000000000
-0.678900348336862 0.625664443141145 2.097000000000000
-0.673396625913531 0.626292705118859 2.080000000000000
-0.665302916467454 0.624397044556382 2.055000000000000
-0.661094187555495 0.626043356007082 2.042000000000000
-0.663684174578239 0.634114216495015 2.050000000000000
-0.684080322382351 0.659392478746787 2.113000000000000
-0.676957858069804 0.658257614707059 2.091000000000000
-0.664331671333925 0.651603887241495 2.052000000000000
-0.660770439177652 0.653704411788887 2.041000000000000
-0.671130387268629 0.669634801006342 2.073000000000000
-0.666274161600984 0.676069632707202 2.058000000000000
-0.668864148623728 0.684359739754334 2.066000000000000
-0.675662864558432 0.697035556310738 2.087000000000000
-0.681166586981764 0.708479557998937 2.104000000000000
-0.678576599959019 0.711529979226388 2.096000000000000
-0.657532955399221 0.695030524602204 2.031000000000000
-0.667569155112356 0.711290145415280 2.062000000000000
-0.672101632402158 0.721808915661330 2.076000000000000
-0.660122942421966 0.714532352570392 2.039000000000000
-0.680519090226077 0.748131021743777 2.102000000000000
-0.671130387268629 0.743490745054620 2.073000000000000
-0.654295471620791 0.730379428095350 2.021000000000000
-0.656885458643535 0.738831229479892 2.029000000000000
-0.658504200532751 0.746226251486766 2.034000000000000
-0.655914213510006 0.748843660759799 2.026000000000000
-0.653647974865105 0.751789578114808 2.019000000000000
-0.651381736220204 0.754697127321958 2.012000000000000
-0.650086742708831 0.758699824054636 2.008000000000000
-0.649115497575302 0.763061175271181 2.005000000000000
-0.647820504063930 0.767022763274009 2.001000000000000
-0.654295471620791 0.780227873911304 2.021000000000000
-0.666274161600984 0.800152222886052 2.058000000000000
-0.663360426200396 0.802268467411739 2.049000000000000
-0.658504200532751 0.801969689163191 2.034000000000000
-0.660122942421966 0.809529146089463 2.039000000000000
-0.647820504063930 0.799926190645845 2.001000000000000
-0.647496755686087 0.805007591412112 2.000000000000000
-0.655266716754320 0.820214620456800 2.024000000000000
-0.655266716754320 0.825761558404543 2.024000000000000
-0.650734239464518 0.825558338768821 2.010000000000000
-0.653647974865105 0.840321338719490 2.019000000000000
-0.661094187555495 0.855490361373141 2.042000000000000
-0.665302916467454 0.866568572101971 2.055000000000000
-0.672101632402158 0.881113465575550 2.076000000000000
-0.666921658356670 0.879968209248916 2.060000000000000
-0.688289051294311 0.919814320089014 2.126000000000000
-0.682137832115293 0.917368372587603 2.107000000000000
-0.681814083737450 0.922704647478939 2.106000000000000
-0.680842838603921 0.927153697319163 2.103000000000000
-0.676310361314118 0.926706565886331 2.089000000000000
-0.670806638890786 0.924843638835143 2.072000000000000
-0.682137832115293 0.946240403852162 2.107000000000000
-0.677929103203333 0.946140964575237 2.094000000000000
-0.673720374291374 0.945970270166573 2.081000000000000
-0.684080322382351 0.966307515223933 2.113000000000000
-0.691850283450584 0.983139709388686 2.137000000000000
-0.691202786694898 0.988070739902326 2.135000000000000
-0.689584044805683 0.991594196543578 2.130000000000000
-0.685051567515880 0.990875747493738 2.116000000000000
-0.685699064271566 0.997616855675471 2.118000000000000
-0.684404070760194 1.001526372620489 2.114000000000000
-0.686022812649409 1.009702460494511 2.119000000000000
-0.684404070760194 1.013113553274173 2.114000000000000
-0.686022812649409 1.021317046968094 2.119000000000000
-0.686994057782938 1.028578503971103 2.122000000000000
-0.689260296427840 1.037806251815635 2.129000000000000
-0.689584044805683 1.044131153291713 2.130000000000000
-0.687641554538625 1.047010934922140 2.124000000000000
-0.689584044805683 1.055806032569076 2.130000000000000
-0.689584044805683 1.061643472207758 2.130000000000000
-0.688289051294311 1.065476252857056 2.126000000000000
-0.692174031828427 1.077349594119807 2.138000000000000
-0.696706509118230 1.090302001172969 2.152000000000000
-0.698001502629602 1.098237279588693 2.156000000000000
-0.696706509118230 1.102097466057892 2.152000000000000
-0.693145276961956 1.102331654270101 2.141000000000000
-0.694116522095485 1.109752065028530 2.144000000000000
-0.694440270473328 1.116148221636347 2.145000000000000
-0.691202786694898 1.116795875972221 2.135000000000000
-0.689584044805683 1.120017868594575 2.130000000000000
-0.691850283450584 1.129555302203976 2.137000000000000
-0.706095212075678 1.158789616482956 2.181000000000000
-0.704476470186463 1.162096567146999 2.176000000000000
-0.688936548049997 1.142294042522870 2.128000000000000
-0.691526535072741 1.152442264159217 2.136000000000000
-0.705771463697835 1.182156180286446 2.180000000000000
-0.748610067618332 -0.908370899404197 2.332000000000000
-0.719718598456390 -0.867169318636506 2.242000000000000
-0.721644696400519 -0.863329193227474 2.248000000000000
-0.720360631104433 -0.855643154300247 2.244000000000000
-0.715545386244109 -0.843814857243084 2.229000000000000
-0.708162010791613 -0.829062205730009 2.206000000000000
-0.703988798579332 -0.818166430063088 2.193000000000000
-0.701420667987159 -0.809193611155265 2.185000000000000
-0.716187418892152 -0.820115027707284 2.231000000000000
-0.712656239327915 -0.809987338511206 2.220000000000000
-0.712335223003893 -0.803541127913924 2.219000000000000
-0.712335223003893 -0.797459776478133 2.219000000000000
-0.713298271975958 -0.792448337288907 2.222000000000000
-0.711051157707807 -0.783881486272425 2.215000000000000
-0.710088108735742 -0.776757628409969 2.212000000000000
-0.705914896523462 -0.766166057343938 2.199000000000000
-0.699815586367052 -0.753571690884276 2.180000000000000
-0.719397582132368 -0.768516226985963 2.241000000000000
-0.703025749607267 -0.745024692643730 2.190000000000000
-0.690506112970426 -0.725862137763576 2.151000000000000
-0.705593880199440 -0.735698645604381 2.198000000000000
-0.717792500512260 -0.742289789139622 2.236000000000000
-0.711372174031829 -0.729577215897568 2.216000000000000
-0.711372174031829 -0.723504086207747 2.216000000000000
-0.708483027115634 -0.714517202633151 2.207000000000000
-0.712014206679872 -0.711999846527409 2.218000000000000
-0.716829451540195 -0.710695274688533 2.233000000000000
-0.712335223003893 -0.700158153505478 2.219000000000000
-0.711051157707807 -0.692825649654961 2.215000000000000
-0.705593880199440 -0.681484452678371 2.198000000000000
-0.705272863875418 -0.675153346524668 2.197000000000000
-0.701741684311181 -0.665782057957828 2.186000000000000
-0.716829451540195 -0.673976957186628 2.233000000000000
-0.725817908612800 -0.676231623027466 2.261000000000000
-0.721002663752476 -0.665589997971969 2.246000000000000
-0.712656239327915 -0.651800946048903 2.220000000000000
-0.706235912847483 -0.639899585075887 2.200000000000000
-0.693074243562598 -0.622057267201263 2.159000000000000
-0.702704733283246 -0.624701819198325 2.189000000000000
-0.727422990232908 -0.640466096260202 2.266000000000000
-0.734164333037361 -0.640133860986719 2.287000000000000
-0.733522300389318 -0.633311828899985 2.285000000000000
-0.736090430981490 -0.629244958699429 2.293000000000000
-0.728065022880951 -0.616168819850583 2.268000000000000
-0.727744006556929 -0.609684241105441 2.267000000000000
-0.738658561573663 -0.612522080869093 2.301000000000000
-0.763697834847347 -0.626765696683348 2.379000000000000
-0.764339867495390 -0.620767286220902 2.381000000000000
-0.770118161327778 -0.618885536852606 2.399000000000000
-0.774933406188102 -0.616139418886995 2.414000000000000
-0.781995765316577 -0.615078550560997 2.436000000000000
-0.776217471484188 -0.597280180659165 2.418000000000000
-0.741547708489857 -0.171765756976151 2.310000000000000
-0.710409125059764 -0.152423266444862 2.213000000000000
-0.718113516836282 -0.135684252067769 2.237000000000000
-0.719397582132368 -0.129785226070608 2.241000000000000
-0.744115839082030 -0.127891933370971 2.318000000000000
-0.715545386244109 -0.116872743815877 2.229000000000000
-0.712335223003893 -0.110267064233761 2.219000000000000
-0.714261320948023 -0.104467422701885 2.225000000000000
-0.729991120825080 -0.100535970138619 2.274000000000000
-0.744115839082030 -0.096128588106970 2.318000000000000
-0.719718598456390 -0.086832446298296 2.242000000000000
-0.712656239327915 -0.079896296377499 2.220000000000000
-0.746362953350181 -0.077303322133488 2.325000000000000
-0.730312137149102 -0.069406061071129 2.275000000000000
-0.719397582132368 -0.062227139435331 2.241000000000000
-0.716829451540195 -0.055885279237899 2.233000000000000
-0.722928761696605 -0.050189001496358 2.252000000000000
-0.738016528925620 -0.044935864900270 2.299000000000000
-0.729670104501059 -0.038198330437452 2.273000000000000
-0.714903353596066 -0.031322012902660 2.227000000000000
-0.715224369920088 -0.025230060895732 2.228000000000000
-0.723891810668670 -0.019355798797433 2.255000000000000
-0.722286729048562 -0.013146571805989 2.250000000000000
-0.717471484188239 -0.006933727246318 2.235000000000000
-0.717471484188239 -0.000808526498687 2.235000000000000
-0.715866402568131 0.005304780123107 2.230000000000000
-0.712977255651936 0.011370203296372 2.221000000000000
-0.707840994467591 0.017331276069786 2.205000000000000
-0.712656239327915 0.023533267924776 2.220000000000000
-0.717471484188239 0.029817477239467 2.235000000000000
-0.705914896523462 0.035363735522876 2.199000000000000
-0.698852537394987 0.040976184342507 2.177000000000000
-0.718755549484325 0.048279331078748 2.239000000000000
-0.724533843316713 0.054852956813909 2.257000000000000
-0.711372174031829 0.066002773468974 2.216000000000000
-0.706556929171505 0.071588024752937 2.201000000000000
-0.697247455774879 0.076597337250538 2.172000000000000
-0.717471484188239 0.084944283968143 2.235000000000000
-0.704630831227375 0.095455183262718 2.195000000000000
-0.726780957584865 0.104660502184244 2.264000000000000
-0.721323680076497 0.110032711586632 2.247000000000000
-0.708162010791613 0.114070717977670 2.206000000000000
-0.703346765931289 0.119299693602933 2.191000000000000
-0.712977255651936 0.127020022692019 2.221000000000000
-0.704630831227375 0.131548648070904 2.195000000000000
-0.718755549484325 0.140321777212609 2.239000000000000
-0.705593880199440 0.143776039639778 2.198000000000000
-0.699494570043030 0.148504935788164 2.179000000000000
-0.700457619015095 0.154689344069106 2.182000000000000
-0.707519978143570 0.162289241023224 2.204000000000000
-0.701099651663138 0.166801992951223 2.184000000000000
-0.702704733283246 0.173182999621800 2.189000000000000
-0.701420667987159 0.178854710786383 2.185000000000000
-0.695642374154771 0.183320149306907 2.167000000000000
-0.698210504746944 0.195918451242306 2.175000000000000
-0.698852537394987 0.202064853132211 2.177000000000000
-0.719397582132368 0.214146851345352 2.241000000000000
-0.721644696400519 0.220976589948641 2.248000000000000
-0.687295949730210 0.216326162143793 2.141000000000000
-0.694037292534663 0.224373135719101 2.162000000000000
-0.700136602691073 0.232322171856415 2.181000000000000
-0.704309814903354 0.239719780972687 2.194000000000000
-0.690506112970426 0.246811519214220 2.151000000000000
-0.688901031350318 0.252119094730957 2.146000000000000
-0.694037292534663 0.259923965293270 2.162000000000000
-0.691148145618469 0.264742423661089 2.153000000000000
-0.701099651663138 0.280525183207906 2.184000000000000
-0.692753227238577 0.283099773627928 2.158000000000000
-0.712335223003893 0.309346184835812 2.219000000000000
-0.708162010791613 0.313579605685063 2.206000000000000
-0.671245133529131 0.314424198242739 2.091000000000000
-0.672208182501195 0.320614087687661 2.094000000000000
-0.688580015026296 0.340179836990183 2.145000000000000
-0.674455296769346 0.338959751812895 2.101000000000000
-0.675097329417390 0.345045860899021 2.103000000000000
-0.684727819138037 0.355813717160976 2.133000000000000
-0.698210504746944 0.368780660261013 2.175000000000000
-0.689222047674339 0.369917168649935 2.147000000000000
-0.685369851786080 0.373700772296005 2.135000000000000
-0.698852537394987 0.387018509890760 2.177000000000000
-0.677665460009562 0.381070657684866 2.111000000000000
-0.673171231473260 0.384290424954643 2.097000000000000
-0.672208182501195 0.389479431932165 2.094000000000000
-0.676060378389454 0.397483071425048 2.106000000000000
-0.667713953964893 0.398276283551575 2.080000000000000
-0.675418345741411 0.408637963637958 2.104000000000000
-0.677986476333584 0.415979829316554 2.112000000000000
-0.675739362065433 0.420370033380289 2.105000000000000
-0.685690868110102 0.432414639092758 2.136000000000000
-0.674455296769346 0.431087155988446 2.101000000000000
-0.671245133529131 0.434765894005251 2.091000000000000
-0.678628508981627 0.445341701243676 2.114000000000000
-0.668998019260979 0.444733182418618 2.084000000000000
-0.662256676456526 0.445905526657641 2.063000000000000
-0.652626186735879 0.444992803231694 2.033000000000000
-0.659046513216310 0.454996914104679 2.053000000000000
-0.677665460009562 0.473636554978815 2.111000000000000
-0.680233590601735 0.481238775946460 2.119000000000000
-0.674776313093368 0.483138667967529 2.102000000000000
-0.667392937640872 0.489247523884172 2.079000000000000
-0.656799398948159 0.487088920923247 2.046000000000000
-0.662898709104569 0.497271531382404 2.065000000000000
-0.668355986612936 0.507071183876608 2.082000000000000
-0.675418345741411 0.518195469269854 2.104000000000000
-0.672529198825217 0.521720372938397 2.095000000000000
-0.660972611160440 0.518398107902194 2.059000000000000
-0.666429888668807 0.528367676479777 2.076000000000000
-0.658404480568267 0.527625800935087 2.051000000000000
-0.653268219383922 0.529086838080935 2.035000000000000
-0.657441431596202 0.538079465915382 2.048000000000000
-0.657441431596202 0.543692177830884 2.048000000000000
-0.676702411037498 0.565397806438175 2.108000000000000
-0.671566149853152 0.566839659510094 2.092000000000000
-0.658725496892289 0.567248773589559 2.052000000000000
-0.667071921316850 0.580131065593089 2.078000000000000
-0.675739362065433 0.593437786048245 2.105000000000000
-0.661614643808483 0.597978404213919 2.061000000000000
-0.672208182501195 0.613291800726802 2.094000000000000
-0.671566149853152 0.618439337217651 2.092000000000000
-0.670603100881087 0.623277549700454 2.089000000000000
-0.671566149853152 0.629905932263775 2.092000000000000
-0.666750904992828 0.631081587125842 2.077000000000000
-0.641711631719145 0.612860268686658 1.999000000000000
-0.651984154087836 0.628237060342134 2.031000000000000
-0.662898709104569 0.644413378425042 2.065000000000000
-0.675097329417390 0.662035276771375 2.103000000000000
-0.662898709104569 0.655731982043707 2.065000000000000
-0.657441431596202 0.655946416140932 2.048000000000000
-0.668677002936958 0.672865070186305 2.083000000000000
-0.667071921316850 0.676944864971525 2.078000000000000
-0.657762447920224 0.673113059969415 2.049000000000000
-0.662898709104569 0.684028491090368 2.065000000000000
-0.651021105115771 0.677330190799318 2.028000000000000
-0.664182774400656 0.696694014020817 2.069000000000000
-0.668998019260979 0.707456334307153 2.084000000000000
-0.668355986612936 0.712483285190443 2.082000000000000
-0.654552284680008 0.703356259215207 2.039000000000000
-0.649737039819684 0.703728923554206 2.024000000000000
-0.651021105115771 0.710677592453533 2.028000000000000
-0.658083464244246 0.729623498846215 2.050000000000000
-0.653589235707943 0.730220529151571 2.036000000000000
-0.646526876579469 0.727849662634357 2.014000000000000
-0.641069599071102 0.727178888748815 1.997000000000000
-0.644921794959361 0.737054345740861 2.009000000000000
-0.648131958199577 0.746256343077016 2.019000000000000
-0.645242811283382 0.748438361570463 2.010000000000000
-0.645563827607404 0.754322029346152 2.011000000000000
