# .PCD v0.7 - Point Cloud Data file format
VERSION .7
FIELDS x y z
SIZE 4 4 4
TYPE F F F
COUNT 1 1 1
VIEWPOINT 0 0 0 1 0 0 0
WIDTH 2472
HEIGHT 1
POINTS 2472
DATA ascii
19.18	-0.94	161.40
-23.53	-7.37	177.60
-13.17	1.68	158.10
-4.09	-48.03	157.70
-9.03	-12.28	153.80
-13.90	-75.94	166.80
-1.02	31.39	149.00
-1.03	76.30	150.60
11.71	-25.76	161.70
33.83	45.81	170.80
25.43	82.78	148.90
-17.84	6.74	165.30
0.61	62.51	149.20
-2.26	45.64	150.20
-14.13	-79.26	164.20
0.61	-8.18	148.20
-3.09	11.51	150.70
-10.37	-19.58	154.90
-8.24	42.34	154.70
3.06	-11.50	149.20
24.53	9.31	171.00
1.43	12.66	149.60
20.92	0.84	164.70
12.72	90.68	147.80
-23.21	73.40	175.20
28.50	65.06	152.30
19.36	124.83	152.40
-7.29	65.14	152.50
9.07	134.02	162.00
11.85	84.95	147.00
24.02	62.97	150.30
13.20	-37.62	175.70
-14.59	-80.21	164.30
17.60	122.09	151.60
-10.70	-69.92	166.60
21.63	5.88	166.70
33.36	79.35	151.70
-20.10	67.14	169.10
11.48	-20.04	158.50
18.72	-20.03	173.50
26.65	58.46	153.60
7.85	55.29	147.40
-19.63	-23.31	173.10
-5.20	92.19	152.30
10.05	22.17	150.20
24.17	86.34	148.70
11.04	70.80	146.90
-15.30	-58.71	167.20
-11.25	-9.43	155.40
1.44	90.51	150.20
1.02	25.69	149.10
7.48	83.85	147.90
-4.35	85.59	151.70
-12.17	85.19	156.30
29.45	29.72	172.50
2.24	68.96	149.00
7.85	52.02	147.30
8.88	8.64	151.10
35.73	106.80	158.50
-21.21	-23.55	178.50
0.67	128.75	163.20
-19.41	63.63	167.20
34.75	109.06	158.00
-14.31	78.33	166.30
-13.27	-34.11	159.30
29.43	55.05	159.60
-9.06	57.45	154.30
4.21	44.17	146.70
15.45	-81.73	179.50
-10.46	30.36	156.30
8.65	44.32	147.20
-12.77	-20.03	158.40
-8.58	-0.48	153.20
30.77	121.23	157.50
-6.41	-24.54	151.40
10.95	17.76	151.20
-28.25	-62.94	173.80
-11.32	117.65	169.10
27.51	65.50	151.40
-18.70	-71.39	169.00
12.37	4.57	153.50
-0.20	38.48	148.00
-13.72	83.38	159.40
-12.42	-60.76	165.30
18.75	-11.85	165.40
14.86	50.17	149.00
28.37	66.42	151.60
22.36	60.04	150.20
17.21	77.12	148.20
-8.66	29.62	154.70
10.19	1.61	152.20
-30.94	-56.53	170.30
-8.57	62.46	153.10
0.20	24.51	149.40
26.16	41.39	160.90
3.84	55.92	148.00
11.49	88.53	147.60
24.05	17.86	167.70
-20.67	-49.82	178.00
-14.95	84.13	163.40
18.66	-0.06	160.70
2.65	22.07	149.50
-4.33	41.30	150.90
-2.64	-13.09	148.60
1.86	95.95	151.00
4.77	103.95	151.80
-12.12	-77.13	167.40
-0.62	-19.39	150.10
22.11	82.56	148.50
14.91	127.16	153.70
12.79	-35.53	170.30
38.51	64.70	168.80
9.97	97.95	149.00
1.10	129.30	161.10
3.07	87.86	149.90
18.93	57.52	149.00
8.45	-6.26	150.90
-0.20	-6.96	148.30
29.39	17.77	180.80
23.12	130.44	158.20
18.42	79.96	148.20
-19.95	-58.92	171.80
-9.07	57.92	154.40
-14.68	-29.95	160.40
-8.73	98.21	155.90
11.98	-30.45	165.50
9.62	-34.60	163.70
13.86	-27.86	166.30
31.72	54.68	162.40
31.90	45.52	168.00
-11.68	-67.58	167.60
-15.22	-77.99	166.30
-1.05	-38.63	153.00
-3.70	-51.61	159.40
8.01	9.83	150.30
0.66	125.07	160.20
13.52	-80.04	173.70
12.69	88.07	147.50
-14.23	98.79	160.30
17.21	62.90	148.20
7.22	-79.03	170.50
-25.54	37.24	181.50
13.98	102.77	148.30
3.44	51.97	148.30
-6.01	63.14	151.70
-10.03	32.93	156.30
4.72	97.50	150.20
9.68	106.98	150.80
-7.78	40.04	154.00
11.24	124.22	155.30
16.00	59.28	148.30
5.29	-33.19	155.00
2.66	12.26	149.80
-1.45	-30.34	151.40
-3.07	-17.72	149.90
7.84	50.78	147.20
21.34	91.70	148.80
-5.60	65.72	151.90
5.47	80.47	148.40
33.35	53.65	166.10
17.25	-29.80	177.90
-17.75	52.24	164.50
-16.35	72.94	168.60
-9.08	16.47	154.60
11.56	118.46	153.90
-27.18	-71.18	173.00
-27.67	46.95	182.50
6.51	-45.57	164.40
-13.46	30.48	161.50
-3.49	31.27	150.40
-1.44	-21.96	150.80
21.46	61.85	149.60
26.01	93.61	149.90
-7.75	29.77	153.30
-6.22	106.22	157.00
-18.57	85.48	167.80
22.77	1.32	168.40
-0.68	-60.73	165.20
15.11	79.58	147.50
14.31	-30.18	171.70
9.09	88.65	147.80
22.20	47.03	154.80
-16.25	71.09	167.50
-3.51	70.02	151.30
-18.84	71.35	170.30
-12.30	-56.14	163.70
11.46	-31.17	164.50
39.87	72.99	168.70
-3.49	4.89	150.40
-19.90	82.61	171.40
-1.02	13.07	149.70
-10.87	-14.16	156.00
-4.83	-40.07	153.70
-0.62	-26.50	150.80
6.53	114.82	154.10
24.76	45.29	157.60
17.66	-13.96	163.60
18.62	14.89	160.40
14.40	54.89	148.50
0.21	98.80	152.20
-27.13	44.87	182.20
2.91	-53.03	163.80
-22.90	70.03	172.80
-5.25	-77.91	167.10
30.16	122.69	156.60
15.17	-84.32	170.80
23.35	42.06	156.80
-18.38	87.34	166.10
0.20	64.59	149.30
26.54	120.47	155.40
-24.65	23.42	182.30
-13.18	-13.93	158.20
1.42	53.44	149.00
9.55	-44.01	170.60
-26.31	-60.93	173.50
-27.85	-53.11	171.30
41.64	107.93	168.40
15.31	49.08	149.40
7.43	65.61	147.00
15.22	-25.58	166.30
-1.46	-38.16	152.80
13.23	5.42	153.70
-6.89	29.68	152.80
-4.73	-5.00	150.40
-1.43	49.14	149.60
-9.98	9.75	155.50
3.64	118.90	156.70
3.21	-39.52	156.50
17.10	26.20	154.50
13.26	107.97	149.30
7.99	17.21	150.00
5.12	12.26	149.80
23.12	67.27	149.80
-9.95	94.25	155.00
-0.68	-59.68	164.80
-7.33	32.29	153.30
11.49	-8.02	152.90
7.97	101.21	149.60
3.07	-66.91	173.00
-1.86	-24.09	151.20
-9.00	76.41	153.30
-3.09	64.74	150.60
-5.24	-73.66	166.80
29.89	56.40	159.70
-28.72	60.05	182.80
-15.69	18.65	166.50
-21.57	39.88	173.50
26.36	75.38	149.60
-2.26	53.46	150.20
36.77	69.13	167.20
33.54	74.84	154.40
-10.32	80.66	154.20
38.87	106.89	162.60
-8.14	66.48	152.70
18.12	-0.93	159.80
-1.85	89.21	150.80
-4.75	66.25	151.20
32.50	97.96	153.50
3.85	25.94	148.20
-6.86	79.98	152.10
17.92	-19.68	170.40
37.07	102.59	158.70
-20.22	76.76	174.10
-13.36	41.68	160.30
19.70	22.53	158.50
34.00	122.74	160.60
-26.30	0.92	179.90
15.53	100.27	147.60
7.87	52.97	147.70
-25.98	67.37	174.50
-12.46	101.67	160.00
-17.36	15.72	169.40
-9.14	37.47	155.60
12.32	94.79	147.90
-5.98	-19.92	151.00
11.03	5.79	152.40
3.96	-78.10	170.50
-8.59	-10.99	153.40
20.89	-15.13	171.80
1.63	-76.05	170.10
15.98	65.29	148.10
8.23	66.02	147.00
20.19	71.55	149.30
-14.07	-3.53	158.50
-6.54	-78.38	165.20
31.35	94.51	152.00
-24.81	49.70	176.30
-3.93	-24.14	151.50
-14.10	1.25	158.80
11.00	-39.52	171.40
18.22	-7.10	160.70
-22.08	-5.78	173.80
22.70	20.68	164.50
-22.65	-64.23	170.90
-11.20	-77.13	167.40
23.30	-3.76	168.90
-2.03	-62.01	165.00
-17.18	53.20	163.30
13.97	104.33	148.20
-27.81	-70.64	174.00
2.25	83.75	149.90
1.83	-14.75	149.00
-3.08	7.78	150.40
15.12	75.99	147.60
1.02	2.81	149.30
9.91	-30.98	161.20
20.60	69.91	149.30
-12.68	-53.19	162.90
17.27	-7.07	160.00
12.30	12.07	152.60
25.26	52.75	155.40
-12.46	-61.86	165.80
12.10	110.60	150.10
-25.62	69.12	175.30
-1.01	-10.58	147.80
27.88	67.90	151.20
5.64	-26.87	152.90
12.28	67.81	147.40
11.21	33.07	149.20
-6.90	27.64	153.10
35.64	65.53	166.20
9.32	-5.04	151.60
8.55	-14.27	152.60
-15.53	88.57	160.10
-20.77	19.10	174.80
13.77	-84.79	170.80
-3.10	84.01	151.10
-15.33	72.93	167.50
22.53	78.55	148.60
-4.90	105.18	156.10
19.72	63.97	148.80
4.22	130.79	162.40
-8.16	88.11	153.20
-13.72	106.01	164.70
-8.14	67.32	152.70
13.57	55.63	148.30
23.45	94.46	149.30
5.26	-29.18	154.00
-26.42	30.22	184.20
-7.71	-9.25	152.50
15.62	109.02	148.50
15.18	-18.15	161.00
7.43	74.88	147.00
21.14	36.35	156.30
-24.20	18.95	182.60
0.62	-25.59	150.30
-2.33	-41.63	154.80
8.75	-50.82	173.10
18.93	117.23	152.30
6.80	-10.39	150.90
-23.51	-69.64	170.40
26.36	76.20	149.60
-24.43	55.60	173.60
-4.73	-19.88	150.70
-14.77	-77.13	166.40
-7.27	-6.72	152.10
5.43	35.02	147.10
25.92	105.20	151.80
-18.05	84.30	167.30
29.77	58.37	159.10
-24.20	65.46	172.00
35.34	104.37	156.80
4.66	73.51	148.30
-16.92	74.82	169.70
13.56	103.52	148.20
-24.85	72.53	176.60
8.65	47.58	147.30
19.68	97.62	148.50
-17.84	14.81	169.60
3.56	-31.19	153.50
-15.97	84.35	164.70
33.29	73.53	155.20
33.14	67.31	162.80
18.53	67.37	149.10
-11.24	68.85	155.20
4.76	-21.22	151.40
-6.93	43.33	153.70
17.30	-5.33	160.30
10.55	-79.07	171.60
30.36	75.36	151.20
18.09	103.53	148.80
-11.88	51.94	158.10
-20.50	38.23	172.50
24.82	107.50	152.70
-6.26	107.69	157.90
-4.75	59.24	151.30
-3.51	85.25	151.10
5.86	70.02	147.80
20.43	90.05	148.10
-3.47	-2.10	149.50
3.96	-61.31	170.60
9.28	11.52	150.90
19.64	26.79	158.00
-19.50	27.28	172.00
27.14	58.61	154.00
15.82	-31.81	178.20
19.61	-14.41	168.90
28.90	101.30	152.20
10.84	28.66	149.70
0.66	-50.77	160.90
17.67	123.83	152.20
13.42	-80.86	172.40
-8.32	100.54	156.20
23.19	-13.97	175.00
6.77	10.64	150.10
-6.79	-52.78	160.30
-14.48	-70.13	168.20
-9.98	11.87	155.40
21.32	53.09	151.50
13.55	53.08	148.00
6.30	89.19	148.70
-0.21	108.47	155.30
3.04	65.02	148.40
-17.67	-22.16	168.00
-30.09	-64.77	176.20
18.52	59.16	149.00
24.20	80.74	148.90
22.50	106.37	151.10
30.13	69.97	152.10
20.47	80.88	148.40
18.83	31.78	154.90
21.88	70.10	149.70
8.77	-24.08	156.50
-7.79	-58.99	162.90
-4.81	-29.85	153.10
19.58	124.95	154.10
-4.32	-0.47	150.60
-18.92	-60.05	171.00
-14.77	47.71	161.40
-6.40	-11.66	151.20
-1.87	95.21	151.80
31.44	25.85	178.40
13.11	90.15	147.60
-23.29	14.69	179.50
-13.72	9.99	159.40
8.24	49.57	147.20
29.30	66.64	152.10
8.86	12.34	150.80
33.64	41.47	172.20
3.95	-28.86	152.30
-9.57	47.31	155.70
-8.75	-62.61	164.20
-4.36	92.42	152.00
7.84	38.27	147.20
8.30	88.08	148.20
20.39	6.68	164.00
-6.05	51.80	152.60
-8.98	-28.13	152.90
-3.10	84.84	151.10
-12.42	-61.22	165.30
-25.03	9.38	181.40
34.42	64.94	164.70
-10.83	2.50	155.40
36.23	64.39	166.80
-18.89	-59.47	170.70
36.94	124.52	165.90
16.41	64.57	148.30
-10.16	102.26	158.20
-6.89	32.63	152.90
14.33	69.57	147.70
-23.06	31.59	177.70
-15.61	4.79	160.90
-3.09	83.12	151.00
-1.86	91.40	151.00
33.11	33.39	176.90
-19.26	84.68	169.90
2.61	42.71	147.20
-27.14	-1.07	182.30
-17.49	38.68	166.30
4.29	2.40	149.50
12.71	-18.64	157.70
38.84	52.69	176.60
-17.41	-42.90	169.90
-10.34	70.66	154.50
24.16	76.51	148.60
4.94	124.02	157.20
15.46	-81.32	179.70
-14.76	48.13	161.30
-6.01	61.48	151.70
11.12	43.75	148.00
-12.89	-60.42	165.60
11.44	72.82	146.90
2.25	16.78	149.80
20.60	60.50	149.30
-15.60	15.36	165.50
-18.33	51.25	165.70
30.08	65.36	154.00
-18.56	39.46	167.70
10.74	37.34	148.30
-4.35	84.23	151.50
-9.17	-81.31	163.80
-14.61	-26.30	159.60
-7.32	85.48	153.00
37.51	109.10	160.60
-26.88	45.94	180.50
1.49	113.31	156.10
-3.97	-34.86	153.00
-10.80	92.12	155.00
8.62	71.16	146.80
-19.21	-54.30	173.60
-5.10	119.59	162.30
10.65	-7.59	152.80
-30.62	-57.74	171.10
-13.70	-28.42	159.20
17.79	35.21	153.20
14.40	98.84	148.50
-5.66	-37.89	153.40
-6.47	24.22	152.70
-28.80	2.49	186.60
-1.84	8.57	149.90
5.45	75.29	147.80
2.31	-36.33	153.90
4.26	76.10	148.60
9.66	-23.75	157.20
14.77	99.79	148.10
-25.80	-52.78	173.30
-2.70	-25.02	151.80
-11.89	40.29	158.30
-23.18	22.94	178.60
14.49	19.74	153.70
-16.75	22.50	168.00
-32.11	-52.43	169.10
15.27	23.44	153.10
-15.53	-7.96	160.10
-5.55	-10.37	150.50
-8.58	82.24	153.20
-11.69	-68.12	167.80
-12.70	67.75	157.60
-4.29	-9.48	149.60
-21.28	-5.69	171.20
-28.71	-49.71	170.90
36.29	74.07	161.00
27.88	84.47	149.00
26.31	89.96	149.30
-26.13	7.42	182.20
-14.62	-47.88	164.60
27.06	64.17	151.20
5.94	-73.42	173.80
-4.75	5.34	151.30
16.02	30.83	152.30
12.77	119.26	153.30
18.05	101.28	148.50
-10.83	2.92	155.40
7.04	56.83	147.20
11.03	79.20	146.80
17.46	48.58	150.40
2.65	17.96	149.40
11.22	30.24	149.40
28.27	21.86	173.90
8.39	-56.31	175.40
0.22	-47.06	158.80
9.05	82.24	147.20
13.16	98.64	148.20
9.40	-54.24	176.50
-5.60	29.92	151.90
5.44	66.24	147.50
34.38	68.92	164.50
-20.65	58.21	166.10
-2.38	114.55	158.40
21.18	120.68	153.50
22.73	69.78	149.90
1.41	38.83	147.80
3.89	91.97	149.90
-18.16	1.29	164.10
10.05	24.63	150.10
-7.77	60.18	153.70
8.27	52.94	147.60
24.57	1.35	171.30
-20.20	16.63	174.00
10.23	81.67	146.90
16.20	-17.43	162.50
-20.32	-27.57	179.20
-26.28	-47.37	179.80
-2.69	70.39	151.20
-3.06	-1.28	149.10
31.43	33.60	173.00
24.97	27.93	164.70
4.23	49.63	147.40
22.58	-22.97	185.70
-25.29	25.55	183.30
-6.85	61.56	151.90
18.71	51.92	150.50
3.81	42.16	146.70
-9.06	-34.29	154.20
29.77	77.80	150.30
18.42	84.83	148.20
3.16	-35.13	154.20
-18.66	-64.75	168.60
22.99	38.31	157.30
8.43	12.73	150.50
26.88	53.43	157.40
12.25	70.85	147.00
-28.65	62.92	182.40
30.43	49.23	165.00
-21.59	-22.45	177.60
17.96	46.32	151.10
10.01	26.58	149.50
-15.62	24.01	165.70
-10.07	-40.05	156.90
-4.75	73.34	151.30
-18.41	16.77	170.60
-9.79	-47.61	159.20
-1.43	42.94	149.40
-5.58	62.97	151.30
17.72	106.60	149.10
33.78	90.16	151.70
-4.80	95.42	152.80
-3.08	24.68	150.40
11.12	91.61	148.00
4.21	-47.21	162.30
15.22	27.97	152.60
33.03	61.77	162.30
18.06	122.83	152.00
16.55	-15.11	161.50
-9.59	46.12	156.00
-6.86	77.89	152.10
-18.31	50.74	165.50
20.09	38.97	154.80
14.38	56.03	148.30
-1.85	57.16	150.20
-15.34	81.24	167.60
22.10	106.44	151.20
37.96	49.13	172.60
-25.48	39.64	181.10
3.53	101.59	152.00
-13.96	23.95	162.20
25.01	61.73	151.30
3.99	-31.23	153.70
-15.84	-54.42	168.10
23.76	9.20	168.90
-0.21	85.32	150.50
2.65	75.33	149.50
12.27	16.63	152.20
11.12	119.07	153.60
-6.07	46.52	153.10
-18.82	0.39	166.00
-3.51	16.10	151.10
-5.68	-67.93	166.20
-6.85	-6.72	151.90
1.91	112.23	155.20
31.81	114.31	156.30
-0.20	2.40	149.00
4.84	-30.89	154.10
4.94	-60.91	172.10
7.58	15.98	150.00
18.69	22.36	157.30
20.58	27.76	158.60
12.29	-19.09	157.80
-24.48	10.85	181.00
-13.07	-75.94	167.80
-3.51	57.51	151.10
-14.34	-20.86	161.50
4.29	84.70	149.40
13.56	99.45	148.20
17.85	111.91	150.20
-1.03	74.91	150.30
-2.97	-75.67	167.20
14.85	22.18	153.10
11.01	113.74	152.10
17.04	0.81	157.90
11.85	68.43	147.00
16.32	82.41	147.50
1.05	-36.70	153.70
-9.93	-0.06	154.60
-4.30	-64.51	165.60
5.04	61.88	147.70
-15.98	-4.45	160.20
13.87	78.61	147.20
13.52	61.47	147.70
3.10	96.85	151.10
1.42	1.58	149.00
3.54	-29.75	152.60
-12.36	-37.05	158.80
16.21	127.49	154.10
16.26	-24.42	167.70
16.57	1.24	157.50
27.49	46.27	161.00
7.19	-52.15	169.70
5.73	116.99	155.30
9.95	31.73	148.70
-3.92	50.47	151.10
24.90	42.95	158.50
-27.27	-61.44	173.60
-16.87	41.02	164.70
9.16	-83.45	171.90
21.06	20.40	162.30
18.30	-4.92	161.40
-6.43	77.38	151.90
5.42	-38.79	158.80
-23.27	13.69	179.30
-6.78	-50.48	160.00
-12.13	-69.84	167.50
-4.75	62.47	151.10
13.43	26.07	151.30
-11.78	73.00	156.80
-4.33	-83.71	166.80
-24.80	-70.75	169.70
-4.04	104.35	155.50
17.55	26.67	154.80
7.61	-34.07	159.10
15.82	43.64	150.40
19.18	50.85	151.00
-0.62	69.51	150.20
14.84	-80.38	172.40
-5.18	59.81	151.70
-9.07	55.38	154.40
2.25	15.57	150.00
-14.98	88.78	158.90
1.44	82.22	150.10
-26.03	67.96	174.80
4.25	53.93	148.10
-16.90	80.30	169.50
-2.66	41.41	149.80
2.63	34.09	148.30
18.02	84.83	148.20
-0.64	-44.23	156.50
-16.80	20.26	168.50
22.13	79.77	148.60
18.87	63.84	148.50
-7.71	66.86	152.60
-0.61	-7.37	148.40
10.28	57.39	147.60
11.85	69.64	147.00
7.83	69.64	147.00
21.49	115.45	152.70
24.48	101.06	150.60
-8.61	14.70	153.80
13.56	104.73	148.20
5.33	118.87	156.10
-9.63	-81.86	164.00
3.44	57.62	148.20
18.41	30.93	154.90
6.83	105.06	151.60
-1.05	-39.50	153.10
-1.81	-14.99	147.30
11.99	-43.28	179.20
18.99	-23.70	176.00
3.43	48.86	147.50
5.86	32.35	147.80
-13.28	51.05	159.40
-15.66	82.33	166.10
-12.43	-60.35	165.40
25.98	115.61	154.60
2.63	33.25	148.20
-6.86	77.53	152.20
1.16	-65.60	169.60
11.91	59.09	147.80
36.11	112.78	160.20
18.46	60.59	148.50
4.30	13.91	149.90
-10.02	51.28	156.10
9.04	78.91	147.00
23.61	23.85	164.60
30.80	100.84	153.40
9.12	93.08	148.40
-17.23	51.12	163.80
10.40	101.83	149.30
4.19	129.10	161.40
-1.43	56.19	149.80
23.92	-2.39	170.00
17.52	11.22	158.30
8.65	61.27	147.20
-11.29	1.23	156.00
24.17	83.49	148.70
-11.71	82.78	155.80
4.70	87.22	149.50
-1.84	30.31	149.70
9.07	52.13	147.60
-2.25	29.52	149.90
11.08	-24.02	159.00
32.81	94.29	153.00
11.85	69.24	147.00
10.17	-46.08	173.10
-21.57	50.66	169.80
13.00	26.02	151.00
24.88	52.00	155.70
4.27	21.55	148.70
23.26	101.13	150.70
-13.62	2.55	158.30
-24.20	59.33	172.00
37.40	83.47	154.70
10.28	52.13	147.60
-21.85	-63.23	172.00
-7.65	-50.52	160.10
-26.67	68.39	175.90
23.09	96.29	149.60
2.64	28.42	148.40
-18.52	-73.92	167.40
10.26	83.05	147.20
11.49	54.56	147.60
-33.70	-52.95	167.80
-5.18	-63.82	165.00
-21.20	30.53	174.40
-5.61	24.14	152.20
5.04	52.53	147.60
14.65	7.18	155.40
23.40	51.11	154.30
38.32	83.26	156.70
-19.37	-75.49	166.80
-15.71	20.04	166.70
-13.85	-17.26	160.90
38.16	66.75	169.30
14.41	-10.41	157.40
-5.61	52.92	152.20
2.65	20.36	149.00
1.85	90.51	150.20
-4.36	-25.45	151.90
-15.98	-3.57	160.20
-21.49	40.21	172.90
-8.91	104.52	159.00
7.45	57.31	147.40
18.41	81.93	148.10
-12.96	25.94	160.80
-7.71	67.28	152.60
-10.80	70.03	155.00
-11.66	89.69	155.20
-9.24	-79.15	164.90
-6.83	-10.43	151.50
-11.45	25.51	158.10
22.44	50.43	153.50
34.02	27.74	184.50
6.64	55.29	147.40
25.14	-12.31	178.70
-17.91	-79.22	166.00
2.24	-7.80	148.80
-17.80	-64.52	169.20
-8.60	-30.77	153.50
0.64	114.10	156.60
-3.50	24.33	150.80
7.69	-79.03	170.50
21.72	111.14	151.40
-6.07	47.36	153.10
2.28	98.00	151.60
-17.38	-49.33	169.60
-5.59	78.05	151.60
6.24	66.20	147.40
34.92	119.96	162.80
27.06	123.93	156.00
28.67	71.95	151.00
24.58	117.96	153.80
14.77	59.20	148.10
38.31	106.56	162.10
4.25	53.49	148.00
3.51	-76.58	171.30
-6.87	5.79	152.40
16.84	101.69	148.50
18.03	44.43	151.70
-23.70	-63.62	171.80
10.17	4.11	152.00
35.58	69.05	165.90
15.21	-4.35	156.80
36.32	81.66	153.70
13.64	-24.73	163.70
-8.16	59.53	153.10
25.32	127.57	158.40
23.75	76.51	148.60
23.80	80.74	148.90
7.84	65.66	147.10
17.39	52.08	149.80
32.76	43.76	170.10
9.58	-19.71	155.90
30.42	31.63	172.60
-18.21	-2.77	164.60
-7.35	37.85	153.70
-25.37	76.52	180.30
-12.26	-14.73	157.50
10.30	48.15	147.80
34.62	45.30	172.40
18.11	-10.83	163.70
22.11	111.49	151.30
5.93	12.67	149.80
12.59	-12.04	156.20
-9.89	-22.42	154.00
-8.56	66.99	152.90
13.06	78.56	147.10
14.72	-3.91	156.20
-12.54	-76.90	166.90
-0.23	-63.72	167.10
6.87	108.96	152.40
-8.57	66.61	153.00
33.16	49.03	167.40
11.47	85.53	147.30
3.61	-68.60	176.10
-0.21	81.20	150.50
1.83	50.85	148.60
-4.34	44.28	151.20
8.47	-1.30	151.20
2.67	95.22	150.50
-4.72	-63.25	164.70
1.44	16.40	150.10
-10.07	38.21	156.90
13.98	22.12	152.70
-0.20	1.99	149.00
-7.25	112.76	160.80
20.88	30.18	157.60
9.10	-19.16	154.90
9.24	20.95	150.30
-20.76	17.17	174.70
-1.83	1.99	149.00
11.87	11.64	152.40
-21.23	10.46	174.60
1.03	79.75	150.10
-6.87	-29.31	152.50
-10.86	56.34	155.90
38.92	75.79	162.80
-28.64	67.71	179.20
7.42	-41.54	164.50
-0.20	35.78	148.60
36.68	40.43	180.20
-0.20	37.72	148.20
7.83	68.79	146.90
1.49	-41.98	156.10
1.94	118.01	157.80
19.34	72.63	149.00
-4.39	-35.30	153.10
-9.08	54.99	154.50
-1.85	87.15	150.80
-13.31	12.63	159.70
-1.03	87.62	150.90
32.15	43.55	169.30
8.02	6.55	150.60
3.28	127.54	160.00
1.43	-20.48	149.10
-5.24	-31.57	153.30
5.84	62.96	147.40
-18.50	40.26	167.20
39.78	68.88	172.30
5.58	-18.29	151.20
-15.49	-4.87	159.70
9.04	64.41	147.00
0.61	47.63	148.70
8.45	9.04	150.90
27.44	28.62	168.80
33.52	30.37	179.10
29.01	90.75	150.60
-15.61	82.54	165.60
-4.39	-32.34	153.00
18.09	102.71	148.80
-11.71	67.88	155.90
11.59	101.56	148.90
-2.24	39.66	149.40
-0.61	2.40	149.00
1.02	12.65	149.50
-2.34	106.83	156.00
-3.91	37.94	150.70
-9.89	-5.12	154.00
7.20	11.91	150.50
-10.03	110.35	163.10
-9.89	81.82	154.00
0.68	-59.86	165.30
15.97	75.39	148.00
-12.25	-25.49	157.30
-6.44	69.14	152.10
9.48	57.43	147.70
-13.86	82.01	161.00
15.07	11.87	155.40
0.61	-8.58	148.20
19.77	72.73	149.20
-22.49	25.65	177.00
-6.22	105.72	156.90
25.01	34.13	162.00
-5.60	38.66	151.90
0.61	59.32	149.40
-7.33	91.17	153.40
7.91	87.39	148.40
7.85	-55.89	174.10
-20.60	29.86	173.30
-21.46	55.49	168.90
37.41	59.33	168.00
11.44	74.83	146.90
25.58	74.25	149.80
-9.11	-35.76	155.10
18.47	75.69	148.60
-21.99	17.87	176.90
-4.34	20.66	151.20
-14.93	33.02	163.10
13.48	62.52	147.30
8.34	27.70	148.90
-15.71	-27.59	162.00
26.28	101.25	151.50
13.51	23.30	152.20
8.62	67.89	146.70
29.30	67.06	152.10
20.14	72.99	148.90
15.32	125.39	153.60
22.94	89.54	148.60
5.91	22.03	149.20
-27.38	41.26	183.90
16.84	69.13	148.50
25.30	47.66	158.30
-1.88	99.48	152.60
19.24	-6.27	161.90
18.15	23.07	156.30
-8.65	52.84	154.40
16.39	101.42	148.10
22.13	107.83	151.40
28.89	87.92	150.00
13.74	-81.37	170.50
-14.14	73.34	164.30
7.51	90.76	148.60
-13.19	-23.05	158.30
10.88	-30.34	162.50
11.49	-22.24	158.70
7.51	91.98	148.60
-15.40	67.11	163.40
30.38	92.41	151.30
-15.87	-73.90	168.40
14.69	30.67	151.50
13.90	90.90	147.50
20.17	118.41	152.20
15.07	11.44	155.40
1.61	-62.18	167.90
-11.33	56.56	156.50
26.94	106.38	152.90
-7.73	113.39	161.70
19.21	1.27	161.60
26.20	39.70	161.20
14.53	14.74	154.20
28.86	44.38	163.80
6.77	16.41	150.20
8.41	17.65	150.20
3.30	127.02	161.00
3.59	112.65	154.60
35.94	56.44	167.60
15.97	92.02	148.00
30.94	48.87	165.30
17.12	-1.36	158.60
-27.92	-48.76	177.70
13.43	113.56	151.30
1.62	-75.03	169.90
-6.88	85.32	152.70
17.59	9.09	159.00
-12.69	-29.41	157.50
-14.13	57.93	159.10
23.02	23.70	163.60
16.19	24.83	153.90
4.46	-36.28	155.50
22.60	55.28	151.80
7.60	-3.76	150.40
-11.69	-50.07	161.50
30.63	19.92	182.30
-4.90	103.27	155.80
14.76	95.26	148.00
-10.80	70.88	155.00
-16.97	-16.85	165.60
-8.58	-4.25	153.20
8.50	-11.70	151.70
-9.88	106.59	160.80
18.04	62.99	148.40
33.81	54.57	166.10
6.13	115.69	154.70
19.56	-13.91	168.50
39.50	59.49	171.10
30.98	68.03	154.30
15.15	63.58	147.90
30.38	67.21	153.40
36.72	120.48	162.90
-14.06	-24.37	158.40
12.32	7.49	152.90
4.27	79.11	148.90
-6.69	107.33	158.00
35.74	72.52	160.50
26.83	39.97	162.30
9.91	37.67	148.00
3.46	22.00	149.00
27.02	64.92	151.00
-5.19	45.74	151.90
16.35	79.74	147.80
-21.05	-53.94	177.10
19.09	124.97	153.60
18.56	38.45	152.70
18.46	78.09	148.50
17.63	8.67	159.30
-12.69	59.47	157.40
40.58	63.46	171.70
9.65	16.01	150.30
16.03	96.81	148.50
32.36	88.45	150.90
31.12	47.34	166.30
24.94	34.49	161.60
0.20	-5.34	148.30
24.13	48.35	156.30
-18.41	43.72	166.40
-8.21	20.64	154.10
-4.35	86.78	151.60
21.83	24.71	161.40
-26.16	-51.12	172.50
-2.27	-21.15	150.90
21.98	-9.35	169.40
6.78	8.19	150.50
6.15	119.12	155.30
11.10	56.62	147.70
-11.75	76.24	156.40
-11.74	-27.90	156.30
34.96	41.92	174.10
-5.59	76.76	151.50
-11.70	-2.19	155.70
12.59	-14.18	156.20
-8.35	-65.25	165.20
31.57	23.88	182.00
36.13	97.30	156.50
4.62	-43.35	161.20
-6.76	-51.67	159.60
20.49	111.63	151.50
13.85	80.47	146.90
21.80	52.43	152.00
24.32	73.74	149.60
18.08	2.13	159.50
-7.80	44.77	154.30
0.61	-13.45	148.10
22.99	24.57	163.40
5.61	-20.05	152.00
9.97	29.76	149.00
-1.03	85.38	150.60
-21.82	80.74	175.50
-16.56	-36.48	166.10
15.53	13.60	155.70
24.37	56.78	152.50
-18.80	2.67	165.80
29.24	83.64	149.70
-7.81	42.29	154.50
14.85	-9.56	157.60
-2.64	-9.01	148.50
13.64	-80.25	175.20
14.37	101.89	148.20
37.38	83.84	154.60
-16.51	-5.36	161.10
-14.29	80.51	166.10
23.14	35.08	158.30
1.42	-21.70	149.00
-6.90	12.95	153.10
3.46	77.94	149.00
2.65	69.37	149.00
-13.16	57.06	157.90
-13.59	-9.58	157.90
8.06	129.77	159.50
35.91	44.31	174.10
-8.57	-16.00	153.10
31.07	41.50	168.50
-0.21	74.45	150.20
-11.36	12.41	156.90
33.28	85.78	151.30
3.73	-45.01	160.80
4.66	74.27	148.20
11.69	110.19	150.10
-9.10	52.62	155.00
-17.73	-24.09	168.60
-16.73	88.11	163.30
16.10	27.22	153.10
15.69	50.65	149.20
10.09	-82.41	171.70
18.05	60.99	148.50
21.49	58.24	149.80
7.61	-2.12	150.50
-8.61	7.11	153.80
-1.85	85.38	150.60
-3.50	59.91	150.90
15.62	1.23	156.60
7.12	93.80	148.90
25.16	118.31	154.80
32.79	122.24	161.10
14.30	-36.04	177.40
15.88	17.79	155.00
-3.53	94.03	151.90
8.02	7.79	150.60
-11.90	99.79	158.40
16.08	-16.86	161.30
-0.61	65.22	149.80
5.31	117.14	155.50
11.82	14.51	151.80
16.02	8.52	156.40
7.85	54.89	147.40
16.80	78.33	148.20
38.05	73.56	164.80
-21.89	77.15	176.10
16.28	42.54	150.90
-5.60	83.15	151.80
29.14	57.10	158.00
7.56	97.05	149.50
-27.85	66.02	177.30
-2.67	47.73	150.30
13.16	-16.50	157.90
-9.91	-7.67	154.40
13.70	-0.90	154.30
-6.13	-77.08	166.30
17.21	88.08	148.20
-9.92	-29.27	154.50
37.39	65.28	167.90
-16.06	-1.38	161.10
15.54	83.74	147.70
1.82	46.19	148.00
-4.76	24.46	151.60
34.28	87.90	152.10
1.58	-58.01	165.20
-6.85	-17.97	152.00
-6.83	-7.53	151.50
-16.26	18.77	167.60
-3.06	-3.33	149.50
-3.12	-25.95	152.40
0.70	-70.03	170.20
14.37	52.75	148.20
-17.49	75.72	170.70
35.27	78.33	154.60
0.71	-81.61	174.00
38.18	54.17	173.60
23.93	-1.93	170.10
23.79	11.99	169.10
18.16	106.40	149.40
-9.74	-65.99	165.90
3.43	47.27	147.60
-12.81	98.42	159.00
9.31	-2.54	151.40
9.84	80.52	147.00
1.82	48.25	148.10
-0.61	47.85	149.40
31.05	54.72	161.20
-17.72	-71.18	168.50
1.02	63.65	149.00
6.36	4.89	150.30
34.53	111.50	159.00
20.27	12.46	163.10
-13.33	-17.60	160.00
-3.10	80.75	151.20
32.49	64.68	161.80
13.48	66.56	147.30
-15.50	-79.36	164.40
-3.09	62.68	150.60
-26.31	-61.88	173.50
32.90	101.73	155.40
27.03	43.16	160.90
-8.30	-62.61	164.20
29.28	62.91	154.20
-5.25	97.67	153.70
11.82	75.93	146.70
-13.63	-11.78	158.40
4.60	38.87	146.40
-22.28	69.11	171.70
4.24	61.52	147.80
12.68	68.98	147.30
-10.05	-37.37	156.50
8.01	103.75	150.30
-15.89	-54.12	168.60
15.52	-16.28	160.00
32.28	114.03	156.50
3.07	88.68	149.90
-24.76	13.98	183.10
-11.44	26.36	158.00
-28.64	38.24	188.90
-10.36	-76.26	168.50
23.64	61.40	150.50
-26.49	34.86	184.70
-0.61	34.97	148.60
21.03	59.76	149.50
24.31	106.24	152.10
-9.03	-15.64	153.70
12.34	49.87	148.10
-19.60	44.35	168.80
-16.17	6.16	162.20
-23.06	82.24	177.70
5.50	19.14	149.00
7.86	-23.92	155.50
-9.14	38.32	155.60
5.51	92.48	149.40
29.87	40.65	166.90
-5.17	78.00	151.50
-10.99	42.76	157.80
3.15	108.97	153.60
17.37	125.48	153.20
6.25	64.22	147.50
13.51	87.73	147.60
12.40	39.09	148.80
7.01	42.13	146.60
3.02	39.51	147.30
-19.86	63.14	167.10
-6.01	-22.09	151.70
0.62	95.31	151.30
16.27	118.14	150.80
5.52	95.06	149.60
-23.86	-71.64	169.60
14.71	79.99	147.50
2.65	77.99	149.10
-15.03	-71.98	169.30
17.68	59.08	148.80
24.40	66.59	150.10
-8.18	16.77	153.50
35.68	40.36	177.70
40.30	107.60	163.00
11.97	124.63	153.70
24.16	84.25	148.60
19.31	97.41	148.80
24.42	56.06	152.80
-15.60	24.43	165.50
6.36	8.59	150.20
16.40	34.52	152.00
4.70	15.11	149.50
5.27	-31.75	154.20
0.61	-14.26	148.10
34.53	105.36	157.00
36.42	68.42	167.70
10.28	87.26	147.50
13.94	70.47	147.90
-7.81	44.01	154.60
22.27	-16.40	175.30
-1.85	16.82	150.20
-26.64	10.11	185.70
22.92	78.49	148.50
32.20	75.81	152.10
27.32	74.55	150.40
-6.19	102.25	156.20
-11.22	91.70	155.00
2.24	-18.89	149.40
7.65	-36.04	160.10
-3.91	6.97	150.80
-18.72	4.92	165.10
18.55	-84.18	176.40
13.24	-0.06	153.90
16.44	60.22	148.60
0.21	76.92	150.20
10.54	-81.84	171.50
18.17	3.90	160.30
-5.41	110.57	158.30
32.41	88.15	151.10
-12.69	-25.94	157.40
21.11	121.12	153.00
-7.80	48.15	154.30
39.70	75.99	164.20
-12.70	69.48	157.60
22.78	52.36	153.00
-16.44	-54.41	169.50
-19.46	-57.44	171.60
-4.41	98.93	153.70
-9.67	-44.46	157.30
27.15	99.31	151.70
18.67	23.19	157.10
10.77	98.57	148.70
-21.70	-57.96	174.60
39.37	97.01	161.00
-16.48	-80.24	165.30
-7.25	-16.68	151.70
18.66	0.38	160.70
36.86	88.69	154.20
-10.29	-76.22	167.40
-11.55	111.27	165.80
-11.77	-76.90	168.90
7.58	101.83	149.90
-18.70	-15.81	169.00
-20.07	-71.81	168.90
22.22	73.55	149.20
38.46	100.48	160.90
3.84	59.20	148.10
-13.56	-7.83	157.60
-11.70	-71.84	167.90
-16.62	26.89	166.70
-6.11	-38.93	154.20
-19.25	-5.06	165.80
-11.07	-42.30	158.90
-14.37	-20.01	161.80
-2.50	130.59	166.10
-6.92	-60.10	163.50
5.85	68.71	147.60
-6.03	68.31	152.10
-13.07	-68.58	167.80
9.82	78.75	146.70
24.04	54.87	153.00
2.58	-71.16	171.80
-10.60	-60.69	165.10
-4.58	-53.45	159.70
14.63	-23.55	164.80
39.37	96.13	161.00
10.23	79.26	146.90
-21.99	78.96	176.90
-23.23	14.16	179.00
-9.88	-76.12	168.20
6.50	111.85	153.50
-4.58	114.17	159.70
-5.41	111.00	158.30
-23.07	-51.72	177.80
-16.12	27.72	166.20
3.42	46.40	147.40
12.05	108.11	149.50
-8.22	28.26	154.20
38.80	73.68	166.10
-6.11	-80.39	165.60
-0.22	115.12	158.00
-10.47	17.95	156.40
-8.57	72.95	153.10
-9.43	78.98	153.40
-5.17	75.41	151.30
-8.23	96.48	154.50
-19.37	53.42	166.80
12.32	59.49	147.80
-9.13	49.77	155.40
6.22	34.19	147.00
17.83	32.36	153.60
-6.86	116.26	162.00
20.92	14.84	164.70
-20.66	30.90	173.80
27.00	109.95	153.20
-4.77	54.03	151.80
-15.01	-2.68	159.30
-23.58	64.57	170.90
8.66	84.43	147.50
10.94	19.41	151.10
-15.93	-21.66	164.20
19.38	-12.41	166.90
8.82	21.34	150.10
-8.80	117.20	165.20
-5.17	21.54	151.50
3.46	-10.67	149.00
8.38	126.25	157.30
12.63	72.36	146.80
25.36	29.21	164.30
15.35	127.32	153.90
18.01	-20.24	171.20
-9.45	68.60	153.70
-4.76	13.64	151.40
17.82	18.90	157.20
-5.18	39.83	151.60
-17.15	92.86	163.00
-8.60	-1.74	153.60
23.74	15.66	168.70
18.52	-83.56	176.10
-2.28	-30.01	151.80
-14.68	-13.25	160.40
-5.76	103.04	156.10
0.61	-12.64	148.20
16.34	20.37	155.30
-14.78	-33.25	161.50
-11.27	-24.38	155.70
26.68	79.63	149.10
-2.52	-75.39	167.60
24.74	57.09	152.20
11.83	76.79	146.80
-6.89	20.06	152.90
-13.92	-37.31	161.80
5.53	2.00	149.90
32.30	82.49	150.60
9.81	71.06	146.60
7.51	29.25	148.50
0.23	-69.48	170.00
6.79	-12.86	150.70
-2.67	56.45	150.50
-16.97	66.20	165.60
1.90	108.62	154.30
-10.51	-38.78	157.00
8.69	88.37	148.00
-1.45	-29.10	151.40
-16.55	89.79	161.50
-3.12	-31.36	152.30
-19.58	75.19	172.70
8.31	91.86	148.40
21.71	80.93	148.50
1.01	-1.27	148.40
-15.35	84.76	162.90
-26.32	35.64	183.50
24.51	39.98	158.80
-13.10	95.15	157.20
-20.02	-18.02	172.40
-26.70	51.04	179.30
-9.20	101.23	156.60
2.83	122.62	159.30
10.72	36.07	148.10
-0.61	22.53	149.80
-16.08	26.75	165.80
26.65	84.42	148.90
5.61	-25.90	152.10
26.88	72.81	150.20
-25.28	5.35	179.70
-27.86	-49.85	171.40
-9.90	-52.16	161.10
-8.33	118.34	164.90
15.95	99.59	147.80
28.67	72.78	151.00
22.16	-19.61	178.30
9.03	114.94	153.70
10.29	42.45	147.70
-11.76	7.23	156.50
-3.80	-61.11	163.80
-15.70	17.75	166.60
-12.44	27.09	159.80
26.11	124.30	155.40
3.67	123.71	157.90
38.65	72.43	167.40
4.23	34.69	147.40
14.38	118.72	152.60
10.25	-10.96	153.10
1.16	-76.89	169.90
18.62	24.85	156.70
12.13	110.07	150.50
-8.20	-33.38	153.90
5.47	81.29	148.40
-13.65	83.83	158.60
0.67	-58.74	164.70
-22.41	80.67	176.40
26.73	12.02	176.30
-21.93	11.54	176.40
17.25	66.74	148.60
-6.06	-31.90	152.90
8.70	89.65	148.10
12.81	40.75	148.90
-20.49	53.51	168.50
-15.50	82.84	164.40
39.30	51.69	176.50
-2.29	-29.23	152.10
-18.48	-74.66	167.00
20.47	85.35	148.40
12.83	106.19	149.10
1.16	-73.79	169.20
4.29	0.76	149.40
-11.25	126.70	175.20
-9.56	29.79	155.60
-17.10	-30.25	166.90
-16.18	-40.29	166.80
6.95	-20.34	154.20
12.74	10.84	152.90
-7.97	-72.74	166.80
-12.23	61.08	157.10
-10.46	14.50	156.20
8.65	58.89	147.30
9.89	117.77	154.10
19.65	109.90	151.40
36.31	55.15	169.30
5.21	107.01	152.60
12.67	17.87	152.10
-25.24	-16.78	190.50
12.33	-35.53	170.30
5.44	52.13	147.60
-3.09	22.65	150.60
-9.96	8.03	155.20
11.88	61.75	147.40
11.25	-14.96	155.40
9.34	2.86	151.90
16.51	-28.87	175.20
-3.88	-8.66	149.50
-18.87	-36.97	174.90
26.34	104.37	151.80
20.53	19.87	161.60
1.49	111.45	155.30
-10.09	36.11	157.10
-6.04	31.71	152.50
20.15	36.97	155.30
-16.99	9.48	165.80
5.97	102.03	150.80
-15.83	-17.50	163.20
-10.56	-80.31	164.50
28.78	84.70	149.40
4.76	-54.20	166.00
6.58	-49.68	166.10
-24.99	44.23	177.60
3.28	124.27	160.30
-1.87	-32.96	152.00
15.51	33.14	151.40
24.50	99.48	150.70
-16.29	43.83	163.40
17.28	104.75	148.80
-26.18	-4.07	182.50
30.40	73.39	151.40
-0.20	-13.85	148.10
25.05	84.94	149.10
-7.28	-18.41	152.20
-27.49	51.11	181.30
-11.74	63.30	156.20
22.17	47.82	154.60
14.94	45.93	149.80
15.94	81.31	147.70
-12.66	-22.88	157.10
-16.37	40.44	164.20
17.61	41.52	151.70
9.11	91.33	148.20
8.08	108.45	151.70
-27.23	55.55	179.60
2.63	49.80	147.90
9.65	-35.18	164.30
1.93	118.77	157.10
-11.50	-61.11	165.00
-15.72	-49.43	166.80
10.31	90.40	148.00
-10.95	22.78	157.20
-15.80	72.05	167.60
13.24	106.60	149.10
30.01	74.27	151.50
-14.79	-16.44	161.60
-20.73	-13.45	174.40
10.63	79.61	146.80
7.61	-5.83	150.50
-11.72	83.74	156.00
-7.31	7.90	152.80
28.58	91.51	150.50
-5.62	42.57	152.50
19.19	1.71	161.50
-11.92	29.95	158.70
-8.57	-23.12	153.00
1.42	0.35	148.80
20.56	121.58	152.00
13.68	-0.06	154.10
29.93	74.90	151.10
7.64	106.78	151.10
11.94	120.18	153.40
-13.17	-73.33	169.20
-4.80	-78.42	167.20
10.50	-19.82	156.80
4.69	89.96	149.30
31.92	54.57	163.40
24.99	121.68	153.70
15.19	56.85	148.30
6.65	60.22	147.60
-19.18	-79.29	165.20
-11.70	-23.53	155.70
-14.98	32.24	163.70
18.07	98.50	148.60
4.71	-49.59	164.30
-23.60	78.03	178.10
-7.67	-52.40	160.50
9.47	48.86	147.50
31.63	33.34	174.10
9.62	-81.47	171.70
-9.58	49.51	155.90
-20.45	-25.16	176.10
25.00	4.24	174.30
8.66	82.35	147.40
4.33	99.96	150.80
-21.40	16.82	176.00
-20.23	69.91	170.20
-18.82	-44.51	174.40
-4.70	-10.72	149.70
-3.09	76.45	150.90
-12.81	46.57	159.00
-7.31	84.12	152.80
3.63	117.16	156.10
-11.65	87.88	155.00
3.03	51.09	148.10
0.61	61.69	149.20
-15.95	-37.03	164.50
18.99	106.06	149.50
1.85	88.04	150.20
-0.20	-18.94	149.80
-11.25	83.84	155.40
1.43	83.29	149.80
-9.47	-8.92	154.10
-6.92	95.44	153.50
30.74	38.89	169.20
-13.25	52.67	159.00
5.45	57.46	147.80
8.31	30.04	148.40
-19.15	-67.64	168.90
-11.34	13.68	156.60
19.68	79.71	148.50
-1.02	29.43	149.40
17.42	17.20	157.40
-30.04	-69.65	178.80
17.66	23.85	155.80
-5.63	87.77	152.60
-11.03	24.24	158.30
-20.66	20.42	173.80
-8.12	-23.03	152.40
-17.85	-25.18	169.70
3.44	62.13	148.30
-13.28	-56.97	164.80
3.84	30.75	147.90
27.08	119.73	156.10
25.51	34.66	162.40
7.81	-19.96	154.50
3.46	74.17	148.80
-14.54	-6.59	158.90
1.63	-71.64	170.70
-2.27	-24.10	151.30
-17.49	-52.93	170.70
-18.31	82.26	169.70
31.11	89.21	150.80
17.05	114.12	150.40
17.35	53.17	149.40
-17.57	-75.12	167.00
15.58	67.73	148.10
24.74	106.31	152.20
4.29	-14.82	149.70
-19.02	-23.62	171.90
4.31	-22.30	150.30
27.79	116.99	155.30
9.45	45.94	147.20
-7.27	-55.76	161.30
9.92	91.33	148.20
16.53	-81.73	180.60
34.60	106.42	157.30
33.65	37.76	174.70
28.03	111.16	154.30
-3.50	50.78	150.80
-1.57	127.51	163.90
0.20	46.50	149.00
3.95	104.57	152.10
30.01	44.76	165.20
3.45	20.30	148.50
5.92	96.64	149.50
1.02	13.07	149.70
8.23	65.21	147.00
16.80	73.87	148.20
36.16	119.34	164.40
-6.11	-79.03	165.60
-1.42	-13.87	148.30
-1.85	81.20	150.50
26.27	-1.51	176.40
30.15	53.81	161.10
-5.67	125.88	165.90
-21.39	-80.36	168.40
-7.71	-20.97	152.60
-11.73	77.38	156.10
-6.87	60.55	152.50
-4.77	48.24	151.90
2.26	14.75	150.10
16.27	41.69	150.80
15.98	32.83	151.90
4.21	45.38	146.70
-4.75	60.90	151.30
-7.03	-67.85	166.00
-11.76	75.86	156.50
-11.78	3.81	156.80
-5.62	54.24	152.40
4.24	29.94	147.90
-16.59	54.52	161.90
-7.70	-24.70	152.40
22.10	86.57	148.40
24.30	-6.69	172.70
20.20	15.97	162.50
3.61	115.51	155.60
11.79	15.71	151.40
4.64	69.62	147.80
-28.69	-64.29	173.60
-1.85	55.89	150.10
21.43	71.19	149.40
-21.18	-57.83	174.20
0.21	110.25	156.00
12.26	83.80	147.10
-25.03	-59.36	174.50
16.59	-16.03	161.90
21.98	104.23	150.40
15.81	42.78	150.30
18.07	67.96	148.60
-23.57	-68.40	170.80
13.04	74.83	146.90
21.47	22.58	162.00
13.54	58.31	147.90
-6.01	6.18	151.70
-22.01	65.48	169.60
23.80	103.74	151.50
0.23	-75.87	169.70
-3.47	-2.51	149.60
-9.89	68.78	154.10
-27.88	-50.35	171.50
-2.65	-4.95	149.00
5.86	79.39	147.90
-0.21	-39.70	153.90
20.50	95.65	148.60
17.64	60.14	148.40
-3.92	24.36	151.00
-12.19	84.01	156.50
-25.33	-71.39	170.10
0.21	115.26	157.00
-14.72	9.64	160.80
9.02	72.36	146.80
-0.22	122.82	160.70
-0.64	108.54	155.40
21.11	4.04	166.20
30.67	78.42	150.70
-15.83	-68.16	167.90
-12.62	-7.78	156.60
-9.04	93.16	153.90
16.06	125.49	152.70
-19.47	30.05	171.70
16.62	-81.80	171.40
-0.62	86.56	150.50
10.66	-9.28	153.00
4.27	82.84	149.00
7.43	69.29	147.10
22.71	45.94	155.40
31.17	27.09	176.90
17.90	111.38	150.60
0.20	41.75	148.10
15.47	34.71	151.00
-4.10	109.79	157.80
-6.87	66.35	152.40
7.46	52.50	147.50
3.27	123.44	159.80
-23.08	57.01	170.70
-1.85	55.10	150.20
17.02	6.43	157.70
-10.11	99.16	157.40
11.52	94.45	148.00
21.67	106.37	151.10
38.28	106.94	162.00
24.53	102.09	150.90
32.36	82.24	150.90
14.27	84.61	147.10
26.11	67.18	150.50
6.65	53.34	147.60
-10.44	96.99	156.00
23.47	49.58	154.80
4.25	54.74	148.10
1.02	16.38	149.90
-14.22	51.75	160.20
-1.85	53.83	150.10
9.04	70.45	147.00
14.62	-83.41	169.90
3.58	110.52	154.00
-19.11	-54.97	172.70
30.67	120.42	157.00
22.07	-15.30	173.70
36.47	43.46	174.50
22.75	0.86	168.20
-5.52	-14.00	149.70
29.99	39.44	167.60
16.79	98.17	148.10
1.03	92.05	150.70
-15.11	86.93	160.30
-11.69	93.33	155.60
-0.61	25.35	149.50
-14.30	-77.95	166.20
-12.64	-1.78	156.80
12.30	-82.01	169.90
-2.26	61.24	150.10
-3.79	-58.13	163.00
11.48	64.18	147.40
-0.21	91.22	150.70
14.96	-13.98	158.70
-18.83	12.07	170.20
10.07	16.03	150.50
35.41	87.39	153.40
23.38	49.81	154.20
5.05	58.68	147.80
-2.45	-57.79	163.30
14.73	88.19	147.70
-5.17	61.31	151.30
-3.08	33.29	150.20
-3.92	78.62	151.10
7.09	29.21	148.30
3.01	37.82	147.00
-8.93	105.66	159.40
-13.70	-13.15	159.20
-3.50	76.87	150.90
-1.09	-49.86	159.40
-0.63	-36.86	152.60
21.18	125.31	153.50
9.97	-78.12	178.00
-14.11	80.84	164.00
14.72	80.44	147.60
-2.40	119.06	159.80
-25.40	-51.03	173.80
-18.81	33.48	170.00
-0.61	45.74	149.20
2.66	81.12	149.60
17.91	113.94	150.70
24.40	65.35	150.10
-2.24	-2.91	149.00
5.93	-7.44	149.70
0.20	54.37	149.30
19.28	9.28	162.20
8.93	-11.73	152.10
9.33	-6.71	151.70
-17.31	82.38	169.00
-3.96	-33.95	152.70
-1.02	46.27	149.60
4.62	34.21	147.10
18.28	34.93	153.80
10.75	-47.01	174.80
1.01	35.23	148.00
27.17	59.53	154.20
-4.34	15.29	151.30
-17.13	-31.22	167.20
15.39	-26.78	168.10
0.21	-25.63	150.50
13.91	-33.65	172.60
4.42	110.10	154.00
2.66	87.39	149.80
31.11	78.06	150.80
-0.21	-23.91	150.10
18.34	-83.71	174.40
-8.59	-8.88	153.30
4.42	111.02	154.10
12.85	-82.07	171.00
-12.05	-82.60	166.40
-18.39	13.95	170.40
5.44	56.17	147.60
1.83	-20.91	149.20
-12.33	-57.18	164.10
1.84	10.62	149.80
13.25	40.02	149.20
17.59	3.86	159.00
11.94	136.42	164.90
11.14	43.03	148.30
-4.30	-7.03	149.80
28.89	22.45	174.80
18.42	80.36	148.20
0.61	18.03	150.00
14.86	-27.13	167.40
-5.61	22.44	152.00
4.24	31.54	147.80
0.61	40.10	148.00
10.77	98.97	148.70
0.22	-48.23	159.80
-2.70	-35.93	152.20
13.88	-80.29	172.20
21.14	47.81	153.20
38.46	60.93	168.60
16.04	106.65	148.60
6.67	126.85	157.50
19.86	43.13	153.00
8.46	8.64	151.00
2.00	129.01	162.40
6.41	-59.09	173.70
3.41	41.39	146.80
-12.78	-33.96	158.60
19.18	13.21	161.40
16.44	106.24	148.60
-13.32	70.45	159.80
19.90	106.97	150.20
-9.42	-18.53	153.20
17.90	30.79	154.20
-27.49	69.25	178.10
13.21	7.94	153.50
-0.21	-41.23	154.90
-10.04	-57.79	163.30
3.87	-7.40	149.00
24.66	90.72	149.20
15.17	101.82	148.10
35.92	121.88	165.40
-28.37	-69.88	174.50
-13.96	28.84	162.20
-1.84	50.06	149.90
18.50	123.41	152.20
12.48	-9.40	154.90
-16.10	59.69	161.50
9.21	23.35	149.80
-14.58	86.82	159.30
5.98	-15.78	151.00
-9.14	37.90	155.60
-1.09	-50.39	159.70
28.28	38.97	165.60
-25.93	4.89	180.80
1.42	-16.77	148.80
-16.90	-53.02	169.50
4.45	-76.11	171.30
-17.71	31.32	168.40
-34.44	-52.00	169.20
36.67	95.46	157.00
8.14	-17.21	152.70
22.52	87.04	148.50
16.23	44.87	150.40
-1.51	114.91	158.30
22.95	76.56	148.70
9.65	17.25	150.30
-5.17	20.71	151.50
22.20	27.72	160.90
7.84	63.69	147.20
14.96	19.81	154.20
-9.15	37.07	155.70
28.18	73.82	150.60
-27.89	34.84	187.30
-15.27	-16.49	162.00
-26.53	-76.90	168.90
10.51	17.72	150.80
30.16	79.80	150.20
-15.05	109.57	169.50
-19.60	80.02	172.90
16.60	113.82	150.00
7.19	12.72	150.40
0.61	70.15	149.80
8.28	33.59	147.90
-11.77	119.83	168.90
3.46	-11.09	149.20
-22.58	14.06	177.70
-23.92	-54.36	176.90
11.09	88.94	147.60
-12.29	97.74	157.90
21.73	93.27	148.70
6.73	-54.04	169.80
22.25	52.50	152.20
9.07	36.35	147.60
24.74	57.51	152.20
33.61	52.24	167.40
7.44	47.18	147.30
12.76	50.34	148.30
31.57	104.93	155.10
-21.11	-67.07	169.80
-2.68	84.78	151.00
-12.89	-38.18	159.90
20.03	18.93	161.10
-1.44	-25.28	150.90
-10.65	-77.35	165.90
13.10	87.67	147.50
-6.89	-33.56	152.80
1.02	20.42	149.40
-17.04	-21.03	166.30
-19.21	-53.82	173.60
23.34	85.47	148.60
23.78	45.92	156.80
-32.11	-54.28	169.10
16.25	-27.94	172.40
13.45	75.28	147.00
32.97	78.57	151.80
-18.50	-25.43	171.40
-18.21	0.39	164.60
-15.83	-58.53	168.00
-1.42	42.41	149.00
11.63	124.67	154.80
25.43	81.97	148.90
-17.54	84.05	166.80
31.20	100.78	153.30
-9.89	68.32	154.00
-27.04	-71.28	172.10
1.02	56.26	148.90
33.86	49.38	168.60
-15.84	-67.78	168.10
24.48	98.59	150.60
-17.59	67.76	167.20
20.02	-83.79	176.60
38.23	123.04	167.60
36.27	53.46	171.30
40.32	61.43	172.60
14.52	42.61	149.70
-10.81	85.38	155.10
-17.24	-67.40	168.30
15.54	80.50	147.70
11.27	26.67	150.00
-8.56	-21.41	152.80
17.60	41.91	151.60
3.54	-72.56	172.90
-26.18	39.95	182.50
-5.23	-33.18	153.00
25.68	-5.36	175.70
-8.47	-47.99	159.00
-12.12	87.85	155.70
-4.34	81.63	151.30
-27.18	-59.80	173.00
-11.02	38.53	158.20
4.65	70.57	148.10
20.44	28.86	157.50
33.86	121.59	162.00
8.24	77.81	147.20
12.52	-9.85	155.30
24.05	101.00	150.50
32.91	79.25	151.50
12.37	98.37	148.40
32.65	111.24	156.20
18.76	-12.31	165.50
-9.57	46.88	155.70
4.35	104.23	151.60
19.71	12.38	162.10
22.94	87.51	148.60
4.60	39.27	146.40
0.20	66.86	149.80
8.93	-9.64	152.00
-11.96	-77.93	165.20
-6.04	33.78	152.40
6.64	47.99	147.30
7.82	40.15	146.70
19.26	84.54	148.40
-15.62	55.98	161.00
-8.15	72.49	153.00
-4.87	-41.26	155.00
25.73	98.65	150.70
22.23	74.01	149.30
3.42	45.94	147.20
-27.51	52.13	181.40
22.93	56.71	151.20
6.62	37.79	146.90
11.04	75.23	146.90
-13.50	-75.34	167.50
1.02	23.27	149.30
25.30	-7.32	176.40
-17.05	-28.79	166.40
3.52	-27.49	151.70
-24.80	22.05	183.40
-8.79	118.87	165.00
-6.44	67.06	152.10
-3.92	16.11	151.20
7.17	100.66	150.00
-1.43	36.72	149.10
15.53	83.28	147.60
-5.62	23.74	152.30
0.20	45.59	148.70
8.23	72.87	147.00
3.73	127.58	160.60
12.65	84.95	147.00
-0.67	-59.12	164.50
12.01	-43.85	179.50
-25.92	-60.18	174.10
-8.19	-57.37	162.10
9.17	28.14	149.10
6.36	99.63	150.30
7.85	75.84	147.30
-25.65	21.33	185.90
-7.89	-81.96	165.10
2.44	-50.35	162.40
22.82	33.08	159.10
-26.41	59.74	177.40
13.06	85.41	147.10
25.79	52.96	156.00
15.13	2.08	156.00
12.94	29.21	150.40
4.28	80.44	149.10
-6.45	83.01	152.30
1.43	10.62	149.80
8.49	129.69	159.40
-14.05	95.33	158.20
20.15	25.15	158.60
-27.14	-12.51	189.20
-11.47	27.73	158.40
5.04	51.76	147.70
-1.84	7.75	149.80
-26.08	-69.36	172.00
-0.61	40.21	148.40
-8.16	57.47	153.20
-9.12	-37.51	155.30
-15.14	17.62	165.40
-29.58	-53.80	170.50
-15.40	11.58	163.40
8.40	20.09	150.00
11.65	107.36	149.60
16.49	14.98	156.80
11.83	74.38	146.80
32.97	29.34	178.80
-12.70	61.28	157.60
-14.85	-20.52	162.30
-5.25	96.76	153.60
-2.26	15.19	150.30
19.19	85.88	147.90
10.69	57.39	147.60
7.43	-26.90	155.50
27.47	96.49	151.20
-8.57	-25.23	153.10
1.43	19.22	149.60
12.30	87.73	147.60
7.62	-2.95	150.70
20.19	105.92	149.30
12.73	57.91	147.90
1.02	64.92	149.10
36.81	93.24	157.60
22.38	118.69	153.10
7.60	12.72	150.40
-18.54	80.45	171.80
37.05	49.82	175.00
33.62	70.88	158.80
25.17	38.14	160.20
4.68	86.57	149.10
11.61	32.23	149.10
-9.45	-5.11	153.70
-19.38	-0.06	166.90
21.83	110.90	152.20
-17.32	22.65	169.10
-10.14	-78.74	165.00
-8.23	-58.54	162.90
34.96	51.50	169.50
6.79	-9.55	150.60
20.47	85.76	148.40
2.24	69.41	149.10
-19.38	-81.02	166.90
-3.93	70.53	151.50
4.39	-28.13	152.90
0.66	-48.85	160.40
2.08	-79.68	168.90
31.06	96.13	152.60
28.07	77.64	150.00
-10.00	53.71	155.70
-22.57	-69.14	170.30
27.31	93.04	150.30
11.94	41.35	148.10
6.25	77.61	147.60
-4.77	-23.34	151.70
-13.22	9.07	158.60
4.23	33.88	147.40
28.05	63.72	152.10
-10.21	-68.80	166.10
19.27	75.64	148.50
-9.91	84.57	154.40
10.62	-24.41	158.70
9.07	50.07	147.50
15.95	80.96	147.80
-5.19	-26.28	151.90
27.04	26.83	169.20
-1.90	-41.15	154.60
32.08	90.87	151.50
35.00	99.11	155.30
21.47	38.75	155.60
18.68	-1.82	160.90
-11.47	-77.70	164.70
-2.65	-5.36	149.00
-13.62	-26.09	158.30
25.86	30.16	164.60
17.63	41.13	151.80
-13.57	95.02	157.70
9.05	-17.79	154.10
-12.13	91.74	155.80
31.13	79.76	150.90
-11.45	29.84	158.10
-12.94	17.99	160.60
7.00	43.68	146.40
14.91	47.88	149.50
-11.73	83.37	156.10
-20.94	-60.47	172.20
-21.39	77.55	175.90
-2.27	79.71	150.80
35.46	89.61	153.60
-13.99	108.99	167.90
0.20	22.50	149.60
1.84	22.06	149.40
17.30	-6.21	160.30
27.94	87.10	149.30
22.77	99.56	150.20
-26.25	69.51	176.30
21.46	7.65	165.40
-1.12	-57.04	163.70
39.28	112.96	164.30
8.57	-34.43	160.80
15.55	77.31	147.80
-19.27	-80.13	166.00
13.06	23.23	151.70
-4.53	111.66	158.00
11.55	98.30	148.30
-9.89	82.30	154.10
-22.75	-72.89	168.20
26.28	27.45	167.30
20.23	-9.64	166.40
-23.92	49.84	173.40
-13.22	-32.24	158.70
19.17	35.87	154.20
1.63	-76.98	170.10
18.11	71.41	149.00
-21.62	35.68	173.90
28.71	120.75	158.00
16.76	-27.53	172.80
11.52	91.15	147.90
-1.49	106.91	155.50
-9.26	102.31	157.60
7.79	-19.48	154.10
0.61	64.10	149.10
11.09	59.41	147.60
-7.09	-44.46	157.30
-17.42	73.55	170.00
-17.11	26.48	167.00
13.98	-15.16	157.50
-20.19	-70.37	169.90
-0.20	22.53	149.80
8.26	55.73	147.50
39.39	81.58	159.30
9.48	85.76	147.70
-24.64	-76.76	168.60
-16.50	77.32	170.10
-16.85	-44.06	169.00
19.66	84.95	148.40
39.80	115.39	166.50
-23.39	-58.11	176.50
3.49	-19.44	150.50
4.48	119.38	156.20
34.90	55.78	167.00
-7.04	-69.75	166.20
-7.78	40.46	154.00
16.46	5.09	156.50
36.21	90.85	155.00
-8.18	14.68	153.60
20.34	45.38	153.50
27.34	53.50	157.60
27.48	84.47	149.00
33.03	60.88	162.30
-10.92	9.39	156.70
-26.36	33.18	183.80
5.51	-3.74	149.50
-11.73	-30.00	156.10
8.07	-12.10	151.50
6.33	-80.06	171.70
19.73	-24.50	178.30
4.64	33.12	147.60
15.57	-88.94	175.30
35.50	49.46	172.10
5.52	130.59	161.60
18.39	18.18	158.40
-14.59	86.44	159.40
17.45	49.79	150.30
-0.66	-53.78	162.00
29.23	117.67	156.20
-32.56	-49.40	166.70
-8.17	-29.04	153.30
-7.30	-0.47	152.70
-14.11	-51.72	163.90
-13.14	112.82	168.80
-3.50	66.90	150.80
28.60	75.06	150.60
27.54	63.93	151.60
-12.38	100.17	159.00
-7.28	75.03	152.20
31.01	36.43	170.70
-2.50	-65.19	166.20
17.97	45.94	151.20
-6.05	87.77	152.60
-4.33	66.16	151.00
29.18	70.11	151.50
-4.80	-77.55	167.30
35.25	91.83	154.50
-7.02	-68.63	165.70
0.61	35.28	148.20
0.62	-32.57	152.10
11.66	29.09	149.80
30.63	54.76	161.30
22.13	76.92	148.60
25.40	112.41	153.70
-8.22	28.70	154.30
-8.33	-63.74	164.80
32.84	30.20	178.10
-11.05	-40.92	158.60
-25.94	50.04	177.50
-28.53	-68.84	175.50
-16.57	-19.19	166.20
29.88	25.36	175.00
-11.45	22.49	158.20
11.89	60.58	147.50
-26.13	-48.58	178.80
13.61	-24.23	163.30
-5.17	-22.89	151.50
-14.17	-79.05	164.70
8.66	35.50	147.40
15.59	103.92	148.20
35.31	46.06	173.50
24.89	96.94	150.60
0.23	-70.46	169.00
11.90	89.81	147.70
24.45	62.60	150.40
-19.83	-53.75	174.90
13.14	52.27	148.00
29.89	122.88	157.40
-11.42	41.03	157.80
-16.87	-71.01	169.20
6.33	21.66	149.50
-1.96	-50.86	159.80
-1.83	-9.01	148.50
16.67	115.59	150.70
-7.76	-32.47	153.60
11.35	15.27	151.10
-6.98	-82.76	164.90
10.78	33.41	148.90
-11.95	37.42	159.00
-12.73	-21.27	158.00
35.63	103.06	158.10
-2.67	11.49	150.50
19.21	35.51	154.50
-21.46	64.74	168.90
30.37	48.24	164.70
-5.59	4.52	151.60
-10.52	-39.24	157.10
24.42	63.75	150.20
22.26	72.47	149.50
32.17	48.45	167.00
-20.17	77.53	173.70
1.02	72.92	149.60
-2.67	21.78	150.30
4.63	50.44	147.40
-6.61	-42.86	156.20
-12.33	73.69	158.30
9.06	51.65	147.40
11.94	43.40	148.20
6.29	25.60	148.60
16.07	-83.24	170.50
-16.86	-48.72	169.10
30.56	30.83	173.40
-14.30	47.59	161.00
9.14	95.31	148.70
25.12	106.59	152.00
9.44	77.70	147.00
5.51	-4.15	149.40
19.72	74.57	148.80
5.85	31.92	147.70
16.35	61.52	147.80
12.69	87.61	147.40
18.05	43.24	151.90
-6.85	62.81	151.90
-12.69	-12.57	157.40
20.18	69.46	149.20
-6.45	64.22	152.30
-1.09	120.74	159.70
-26.84	-4.59	183.60
-19.43	-73.88	167.30
1.11	-53.70	163.10
8.32	-24.89	156.20
-21.67	85.92	174.30
-24.99	42.77	177.60
28.72	51.85	160.50
14.94	20.20	154.00
-15.80	-66.66	167.60
2.01	129.44	163.50
6.99	-45.73	165.00
23.48	-5.19	170.20
27.02	43.57	160.80
-2.66	36.87	149.70
11.44	65.97	146.90
1.08	120.55	158.30
12.35	47.87	148.20
-10.32	62.49	154.20
-6.86	-57.33	162.00
26.95	95.70	150.60
25.32	108.27	153.20
-7.30	59.37	152.70
-16.22	23.77	167.20
-29.33	5.66	190.00
14.25	30.61	151.20
-19.94	-59.35	171.70
-2.11	-81.89	171.60
13.87	79.77	147.10
21.33	75.34	148.70
6.16	-32.47	155.60
26.00	28.97	165.50
-12.73	97.31	157.90
-30.93	-49.24	167.70
1.16	-68.63	170.20
-6.47	35.12	152.80
0.61	-6.14	148.10
-24.16	15.42	182.30
1.42	-15.52	148.50
-19.10	67.36	168.50
-0.61	31.80	149.00
-2.24	-2.09	148.90
-8.69	39.05	155.10
-18.66	57.23	164.60
18.60	-82.92	176.80
-18.89	46.97	166.60
-1.42	42.01	149.00
21.94	59.18	150.10
-12.38	43.08	159.00
-9.90	87.42	154.20
17.81	33.16	153.40
30.12	80.93	150.00
-18.87	-36.01	174.90
-1.44	66.17	150.10
-27.43	52.98	180.90
13.08	18.69	152.00
22.75	111.34	152.80
-22.49	-9.77	177.00
6.01	-25.00	151.70
-25.17	-12.31	186.10
17.60	13.02	159.10
18.48	122.00	152.00
20.60	63.78	149.30
-6.45	89.68	152.30
-3.08	9.01	150.40
4.35	-26.63	151.50
9.97	98.36	149.00
-12.22	-0.06	157.00
28.33	27.65	171.40
9.98	101.69	149.10
9.73	-0.47	151.60
6.32	93.58	149.20
33.16	106.81	156.60
15.98	14.48	156.00
2.58	-72.10	171.80
25.96	42.83	159.70
-5.55	-57.92	162.40
12.69	16.22	152.30
5.46	-40.40	160.00
7.70	-52.02	170.80
-15.41	-74.36	168.40
-1.86	-26.59	151.30
-14.84	39.92	162.10
21.29	84.95	148.40
-25.49	66.85	174.40
-19.76	-63.50	170.20
-1.01	-13.47	148.30
19.14	26.26	157.40
-12.02	-83.31	166.00
9.85	-12.25	153.40
5.44	67.05	147.50
19.18	112.92	151.00
6.06	-74.01	177.50
0.21	87.27	150.30
31.77	75.76	152.00
-16.13	14.52	166.30
40.74	59.00	172.40
-6.08	-37.92	153.50
