# This PCD file was generated using the MATLAB® pcwrite function
# from Computer Vision Toolbox®.
# .PCD v.7 - Point Cloud Data file format
VERSION .7
FIELDS x y z
SIZE 8 8 8
TYPE F F F
COUNT 1 1 1
WIDTH 865
HEIGHT 1
VIEWPOINT 0 0 0 1 0 0 0
POINTS 865
DATA ascii
-1.069709719281470 0.091940068953043 3.783000000000000
-1.066599276005737 0.102010205927331 3.772000000000000
-1.064902670582611 0.112168973323175 3.766000000000000
-1.062357762447920 0.173679110735956 3.757000000000000
-1.065185438153132 0.184465164462325 3.767000000000000
-1.067164811146780 0.195150901925533 3.774000000000000
-1.067730346287822 0.205602758121715 3.776000000000000
-1.069144184140428 0.216237148040758 3.781000000000000
-1.066033740864695 0.225940047028387 3.770000000000000
-1.065468205723653 0.236146697872760 3.768000000000000
-1.064337135441568 0.246211561967299 3.764000000000000
-1.063206065159484 0.256254501405918 3.760000000000000
-1.060943924595315 0.265991942688949 3.752000000000000
-1.058964551601667 0.275759168617047 3.745000000000000
-1.053874735332286 0.284647906469418 3.727000000000000
-1.051047059627075 0.294070904337245 3.717000000000000
-1.049067686633427 0.303684657673904 3.710000000000000
-1.047936616351342 0.313513831717303 3.706000000000000
-1.045108940646131 0.322797059903641 3.696000000000000
-1.045391708216652 0.333016328387496 3.697000000000000
-1.042846800081962 0.342312897726961 3.688000000000000
-1.040301891947272 0.351560136590606 3.679000000000000
-1.037756983812581 0.360758044978432 3.670000000000000
-1.036625913530496 0.370411821774472 3.666000000000000
-1.035494843248412 0.380043673914592 3.662000000000000
-1.033515470254764 0.389334038576432 3.655000000000000
-1.033232702684243 0.399241604227074 3.654000000000000
-1.034646540536849 0.409815701342337 3.659000000000000
-1.036343145959975 0.420531946964257 3.665000000000000
-1.037756983812581 0.431163596301310 3.670000000000000
-1.038322518953624 0.441461979906053 3.672000000000000
-1.038322518953624 0.451525396973301 3.672000000000000
-1.043977870364046 0.514694057870129 3.692000000000000
-1.038888054094666 0.522253613457354 3.674000000000000
-1.038888054094666 0.532322511688582 3.674000000000000
-1.039453589235708 0.542686669261084 3.676000000000000
-1.039170821665187 0.552610678403666 3.675000000000000
-1.038888054094666 0.562529206382267 3.674000000000000
-1.039453589235708 0.572909807446709 3.676000000000000
-1.040867427088314 0.583777146834902 3.681000000000000
-1.041432962229356 0.594187894301234 3.683000000000000
-1.043977870364046 0.605758116233563 3.692000000000000
-1.045957243357694 0.617044041152579 3.699000000000000
-1.046805546069258 0.627690116913228 3.702000000000000
-1.047371081210300 0.638180341257269 3.704000000000000
-1.046805546069258 0.647981385967124 3.702000000000000
-1.045674475787173 0.657415916203965 3.698000000000000
-1.046240010928216 0.667911621711987 3.700000000000000
-1.048219383921863 0.679334575730502 3.707000000000000
-1.047088313639779 0.688749921893413 3.703000000000000
-1.045391708216652 0.697765866599431 3.697000000000000
-1.045957243357694 0.708280756181383 3.699000000000000
-1.047371081210300 0.719389266784694 3.704000000000000
-1.047088313639779 0.729343422329166 3.703000000000000
-1.044543405505089 0.737694490882083 3.694000000000000
-1.041432962229356 0.745591346338308 3.683000000000000
-1.039170821665187 0.754043454668033 3.675000000000000
-1.036343145959975 0.762035868737085 3.665000000000000
-1.033798237825285 0.770184134222743 3.656000000000000
-1.036343145959975 0.832345499690314 3.665000000000000
-1.032949935113722 0.839631567119593 3.653000000000000
-1.031818864831637 0.848712562279726 3.649000000000000
-1.030405026979031 0.857536304489621 3.644000000000000
-1.030687794549553 0.867761054137457 3.645000000000000
-1.031536097261116 0.878472903865865 3.648000000000000
-1.032101632402158 0.888957647045927 3.650000000000000
-1.033515470254764 0.900192224420778 3.655000000000000
-1.032101632402158 0.908963895572864 3.650000000000000
-1.032667167543201 0.919470563408845 3.652000000000000
-1.030122259408510 0.927188557522075 3.643000000000000
-1.030122259408510 0.937172497711614 3.643000000000000
-1.029839491837989 0.946896444368926 3.642000000000000
-1.031818864831637 0.958716782775990 3.649000000000000
-1.031536097261116 0.968451691761262 3.648000000000000
-1.030405026979031 0.977376473747965 3.644000000000000
-1.028708421555905 0.985737419358375 3.638000000000000
-1.028991189126426 0.995981353080140 3.639000000000000
-1.030405026979031 1.007336516062551 3.644000000000000
-1.031253329690595 1.018160729652549 3.647000000000000
-1.031818864831637 1.028719468546340 3.649000000000000
-1.031536097261116 1.038435193457683 3.648000000000000
-1.031818864831637 1.048720235909298 3.649000000000000
-1.031818864831637 1.058720619590776 3.649000000000000
-1.031253329690595 1.068135242240042 3.647000000000000
-1.030970562120074 1.077834523659444 3.646000000000000
-1.027577351273820 1.084246345433916 3.634000000000000
-1.027011816132778 1.123464797224339 3.632000000000000
-1.030970562120074 1.137787495272496 3.646000000000000
-1.031818864831637 1.148724072724084 3.649000000000000
-1.030970562120074 1.157771819143513 3.646000000000000
-1.030970562120074 1.167763981079022 3.646000000000000
-1.031818864831637 1.178725223768519 3.649000000000000
-1.033798237825285 1.191005979949902 3.656000000000000
-1.033232702684243 1.200368531541358 3.654000000000000
-1.031818864831637 1.208726374812955 3.649000000000000
-1.028991189126426 1.215386866034871 3.639000000000000
-1.029556724267468 1.226033303552342 3.641000000000000
-1.029839491837989 1.236351232987837 3.642000000000000
-1.031818864831637 1.248727909538869 3.649000000000000
-1.030405026979031 1.257003535350767 3.644000000000000
-1.028991189126426 1.265251755342765 3.639000000000000
-1.028708421555905 1.274874300466447 3.638000000000000
-1.030122259408510 1.286610404345467 3.643000000000000
-1.033232702684243 1.300509397455644 3.654000000000000
-1.035212075677891 1.313034065434135 3.661000000000000
-1.034081005395806 1.321621755836069 3.657000000000000
-1.033798237825285 1.331279928525622 3.656000000000000
-1.031536097261116 1.338364486442341 3.648000000000000
-1.032101632402158 1.349101363165482 3.650000000000000
-1.032667167543201 1.359849202216583 3.652000000000000
-1.034646540536849 1.372483493474674 3.659000000000000
-1.036343145959975 1.384778314322830 3.665000000000000
-1.035494843248412 1.393680809896789 3.662000000000000
-1.036343145959975 1.445043712282740 3.665000000000000
-1.039170821665187 1.459058171593320 3.675000000000000
-1.043129567652483 1.474726495398563 3.689000000000000
-1.046240010928216 1.489264044112408 3.700000000000000
-1.051612594768117 1.507103840651600 3.719000000000000
-1.053874735332286 1.520559944749867 3.727000000000000
-1.056985178608019 1.535292074785001 3.738000000000000
-1.057550713749061 1.546363302510921 3.740000000000000
-1.059247319172188 1.559110319387425 3.746000000000000
-1.059812854313230 1.570214434097225 3.748000000000000
-1.064054367871047 1.586811453440252 3.763000000000000
-1.066599276005737 1.600944119533224 3.772000000000000
-1.069144184140428 1.615126116102015 3.781000000000000
-1.067730346287822 1.623338708528143 3.776000000000000
-1.067447578717301 1.633254495924754 3.775000000000000
-1.066882043576259 1.642729411377800 3.773000000000000
-1.068013113858343 1.654822152672341 3.777000000000000
-1.068578648999385 1.666055074735671 3.779000000000000
-1.070275254422512 1.679073409229184 3.785000000000000
-1.070558021993033 1.689892865168847 3.786000000000000
-1.068578648999385 1.697125052756203 3.779000000000000
-1.066882043576259 1.704770706467225 3.773000000000000
-1.067447578717301 1.716020072022495 3.775000000000000
-1.070275254422512 1.730938923389771 3.785000000000000
-1.069709719281470 1.740391914186896 3.783000000000000
-1.070840789563555 1.752610722252977 3.787000000000000
-1.069144184140428 1.760196083160220 3.781000000000000
-1.063206065159484 1.760724390631595 3.760000000000000
-1.071971859845639 1.816799186595265 3.791000000000000
-1.076496140973977 1.834900423693975 3.807000000000000
-1.080172119390752 1.851635195650148 3.820000000000000
-1.080737654531794 1.863079142526707 3.822000000000000
-1.081303189672837 1.874534051731226 3.824000000000000
-1.082717027525442 1.887478752267831 3.829000000000000
-1.085261935660133 1.902433592957800 3.838000000000000
-1.086958541083259 1.915942491627522 3.844000000000000
-1.087806843794823 1.927980783039086 3.847000000000000
-1.088655146506386 1.940035517942590 3.850000000000000
-1.087241308653781 1.948053529047428 3.845000000000000
-1.087806843794823 1.959609839785577 3.847000000000000
-1.088937914076908 1.972201367002296 3.851000000000000
-1.092331124923161 1.988933760133302 3.863000000000000
-1.094310497916809 2.003143886035638 3.870000000000000
-1.094310497916809 2.013749938336905 3.870000000000000
-1.009248002185643 -0.327246668822591 3.604000000000000
-1.010928215285841 -0.317897973613677 3.610000000000000
-1.012888463902739 -0.308601711219395 3.617000000000000
-1.013168499419439 -0.298771605378118 3.618000000000000
-1.014568677002937 -0.289255372910991 3.623000000000000
-1.015688819069736 -0.279634636571422 3.627000000000000
-1.015688819069736 -0.269694545693724 3.627000000000000
-1.014848712519637 -0.259539604150337 3.624000000000000
-1.015408783553036 -0.249745487631753 3.626000000000000
-1.017369032169934 -0.240271087408122 3.633000000000000
-1.019889351820231 -0.230885109321816 3.642000000000000
-1.021569564920429 -0.221267837077882 3.648000000000000
-1.023809849054026 -0.211733505807293 3.656000000000000
-1.021849600437129 -0.161326189549613 3.649000000000000
-1.026330168704324 -0.151989333654895 3.665000000000000
-1.029410559388020 -0.142371129613085 3.676000000000000
-1.032210914555017 -0.132656643444802 3.686000000000000
-1.034171163171915 -0.122787599414612 3.693000000000000
-1.037811624889010 -0.113063236188837 3.706000000000000
-1.042572228672905 -0.103378688138213 3.723000000000000
-1.043132299706304 -0.093225555378940 3.725000000000000
-1.045092548323202 -0.083172892355421 3.732000000000000
-1.044532477289803 -0.072905948707268 3.730000000000000
-1.046492725906701 -0.062801214625938 3.737000000000000
-1.050133187623796 -0.052742500397384 3.750000000000000
-1.050693258657196 -0.042487966104482 3.752000000000000
-1.055733897957790 -0.032359805528302 3.770000000000000
-1.057414111057988 -0.022062868950850 3.776000000000000
-1.058534253124787 -0.011726840711894 3.780000000000000
-1.057694146574688 -0.001366355519258 3.777000000000000
-1.056854040024588 0.008977686181437 3.774000000000000
-1.056013933474489 0.019305284390193 3.771000000000000
-1.057134075541288 0.029671459031040 3.775000000000000
-1.058814288641486 0.040080759470081 3.781000000000000
-1.059094324158186 0.050456241127366 3.782000000000000
-1.058814288641486 0.060805040478396 3.781000000000000
-1.062174714841883 0.071393048787841 3.793000000000000
-1.064134963458780 0.081939016569559 3.800000000000000
-1.060774537258384 0.092061586358479 3.788000000000000
-1.057134075541288 0.102091338116562 3.775000000000000
-1.055173826924391 0.112228542613309 3.768000000000000
-1.051533365207295 0.173586654461941 3.755000000000000
-1.054613755890991 0.184416195743328 3.766000000000000
-1.058534253124787 0.195461157731456 3.780000000000000
-1.058814288641486 0.205875007536600 3.781000000000000
-1.059934430708285 0.216465909900626 3.785000000000000
-1.056574004507889 0.226119840169258 3.773000000000000
-1.057694146574688 0.236710742533284 3.777000000000000
-1.053213578307493 0.246015325334488 3.761000000000000
-1.050133187623796 0.255572973476647 3.750000000000000
-1.049013045556997 0.265566582439447 3.746000000000000
-1.049013045556997 0.275832802573955 3.746000000000000
-1.043972406256403 0.284724281008315 3.728000000000000
-1.040051909022608 0.293833558974584 3.714000000000000
-1.034171163171915 0.302293110724993 3.693000000000000
-1.032210914555017 0.311821906019962 3.686000000000000
-1.031090772488218 0.321574343767642 3.682000000000000
-1.034171163171915 0.332656018592108 3.693000000000000
-1.034171163171915 0.342776987881146 3.693000000000000
-1.032210914555017 0.352229046880395 3.686000000000000
-1.027170275254423 0.360561446588798 3.668000000000000
-1.024929991120825 0.369805583113630 3.660000000000000
-1.023529813537327 0.379317211403013 3.655000000000000
-1.022689706987228 0.389014475754071 3.652000000000000
-1.022969742503927 0.399132342704297 3.653000000000000
-1.025210026637525 0.410039705551871 3.661000000000000
-1.027170275254423 0.420876175024528 3.668000000000000
-1.028570452837921 0.431516046107551 3.673000000000000
-1.029690594904720 0.442063099159737 3.677000000000000
-1.029410559388020 0.452017254704209 3.676000000000000
-1.042852264189605 0.508949184128741 3.724000000000000
-1.033331056621816 0.514415242020795 3.690000000000000
-1.029130523871320 0.522395761964011 3.675000000000000
-1.028570452837921 0.532177622599935 3.673000000000000
-1.028850488354621 0.542391409919810 3.674000000000000
-1.027730346287822 0.551858827140531 3.670000000000000
-1.027170275254423 0.561610541374566 3.668000000000000
-1.028850488354621 0.572598104613496 3.674000000000000
-1.029970630421419 0.583301370839111 3.678000000000000
-1.031650843521617 0.594349226881821 3.684000000000000
-1.033891127655215 0.605758116233563 3.692000000000000
-1.037531589372311 0.618044923619980 3.705000000000000
-1.038091660405710 0.628537888546012 3.707000000000000
-1.039211802472509 0.639386405617097 3.711000000000000
-1.037811624889010 0.648681527929271 3.706000000000000
-1.036411447305512 0.657949244421545 3.701000000000000
-1.035571340755413 0.667550588402953 3.698000000000000
-1.038091660405710 0.679334575730502 3.707000000000000
-1.037251553855611 0.688935919711910 3.704000000000000
-1.038931766955809 0.700219465805758 3.710000000000000
-1.040331944539307 0.711344419901010 3.715000000000000
-1.041172051089406 0.722108340687228 3.718000000000000
-1.039211802472509 0.730919103500819 3.711000000000000
-1.036971518338911 0.739491797438104 3.703000000000000
-1.034171163171915 0.747615759442675 3.693000000000000
-1.030810736971518 0.755274546022593 3.681000000000000
-1.029130523871320 0.764115093481252 3.675000000000000
-1.026050133187624 0.771869438673997 3.664000000000000
-1.026890239737723 0.832799712787007 3.667000000000000
-1.026610204221023 0.842619579813969 3.666000000000000
-1.025210026637525 0.851503614827645 3.661000000000000
-1.022129635953828 0.858948274255521 3.650000000000000
-1.020729458370330 0.867761054137457 3.645000000000000
-1.020729458370330 0.877750475490975 3.645000000000000
-1.022129635953828 0.888957647045927 3.650000000000000
-1.022689706987228 0.899453352553948 3.652000000000000
-1.022129635953828 0.908963895572864 3.650000000000000
-1.022129635953828 0.918967019836332 3.650000000000000
-1.020729458370330 0.927697582258568 3.645000000000000
-1.020169387336931 0.937172497711614 3.643000000000000
-1.021289529403729 0.948196412030059 3.647000000000000
-1.022409671470528 0.959242251004423 3.651000000000000
-1.022129635953828 0.968982641153675 3.650000000000000
-1.020449422853630 0.977376473747965 3.644000000000000
-1.019609316303531 0.986550286938934 3.641000000000000
-1.019609316303531 0.996528745964493 3.641000000000000
-1.019609316303531 1.006507204990052 3.641000000000000
-1.021009493887030 1.017881552046392 3.646000000000000
-1.021289529403729 1.028155632170048 3.647000000000000
-1.021569564920429 1.038435193457683 3.648000000000000
-1.021849600437129 1.048720235909298 3.649000000000000
-1.021569564920429 1.058430479656660 3.648000000000000
-1.020169387336931 1.066963720175617 3.643000000000000
-1.019609316303531 1.076356418168962 3.641000000000000
-1.017649067686633 1.124083445240431 3.634000000000000
-1.020729458370330 1.137475430682460 3.645000000000000
-1.020449422853630 1.147150046863952 3.644000000000000
-1.020449422853630 1.157136727635480 3.644000000000000
-1.019889351820231 1.166482835734997 3.642000000000000
-1.020729458370330 1.177433116096534 3.645000000000000
-1.021289529403729 1.188074072450025 3.647000000000000
-1.021849600437129 1.198725991131476 3.649000000000000
-1.021289529403729 1.208063877485023 3.647000000000000
-1.020449422853630 1.217056812264653 3.644000000000000
-1.019889351820231 1.226370033380288 3.642000000000000
-1.021009493887030 1.237709114627582 3.646000000000000
-1.022129635953828 1.249070120530796 3.650000000000000
-1.021849600437129 1.258728293220348 3.649000000000000
-1.019609316303531 1.265947139654577 3.641000000000000
-1.019329280786832 1.275575165942239 3.640000000000000
-1.020729458370330 1.287316750985239 3.645000000000000
-1.023249778020627 1.300509397455644 3.654000000000000
-1.024369920087426 1.311958101982537 3.658000000000000
-1.024369920087426 1.321983150901925 3.658000000000000
-1.022689706987228 1.329823385934237 3.652000000000000
-1.020729458370330 1.337263857752832 3.645000000000000
-1.021009493887030 1.347622895918177 3.646000000000000
-1.023529813537327 1.360966274398031 3.655000000000000
-1.026330168704324 1.374734081329511 3.665000000000000
-1.025490062154224 1.383644798649441 3.662000000000000
-1.022409671470528 1.389494439359142 3.651000000000000
-1.024649955604126 1.442678019984324 3.659000000000000
-1.029690594904720 1.459852216856772 3.677000000000000
-1.032210914555017 1.473527205757414 3.686000000000000
-1.035851376272113 1.488861540316702 3.699000000000000
-1.039491837989208 1.504267130007728 3.712000000000000
-1.042852264189605 1.519335989870809 3.724000000000000
-1.045372583839902 1.533238447076621 3.733000000000000
-1.047332832456799 1.546363302510921 3.740000000000000
-1.048452974523598 1.558277905976113 3.744000000000000
-1.050133187623796 1.571052328672517 3.750000000000000
-1.054333720374292 1.587654829179524 3.765000000000000
-1.056854040024588 1.601792976436476 3.774000000000000
-1.058814288641486 1.615126116102015 3.781000000000000
-1.058254217608087 1.624628437374961 3.779000000000000
-1.058534253124787 1.635417746912734 3.780000000000000
-1.057974182091387 1.644906365275730 3.778000000000000
-1.058814288641486 1.656574678118645 3.781000000000000
-1.058534253124787 1.666495946679237 3.780000000000000
-1.059654395191585 1.678629796703628 3.784000000000000
-1.059374359674886 1.688553805846209 3.783000000000000
-1.057694146574688 1.696226865377131 3.777000000000000
-1.056574004507889 1.704770706467225 3.773000000000000
-1.056293968991189 1.714656347461947 3.772000000000000
-1.057974182091387 1.727737715341230 3.778000000000000
-1.058814288641486 1.739471802151905 3.781000000000000
-1.060214466224985 1.752147925653492 3.786000000000000
-1.059094324158186 1.760661620341696 3.782000000000000
-1.051813400723994 1.758851279577731 3.756000000000000
-1.060214466224985 1.814402986138136 3.786000000000000
-1.066655283109077 1.835864385040807 3.809000000000000
-1.069735673792774 1.851635195650148 3.820000000000000
-1.071695922409672 1.865516451713686 3.827000000000000
-1.071975957926371 1.876494861408769 3.828000000000000
-1.073096099993170 1.888957581271959 3.832000000000000
-1.073936206543269 1.900946542207703 3.835000000000000
-1.075336384126767 1.913948794966099 3.840000000000000
-1.075896455160167 1.925474959302357 3.842000000000000
-1.077856703777065 1.939531612613254 3.849000000000000
-1.078416774810464 1.951093404515383 3.851000000000000
-1.078976845843863 1.962666158745471 3.853000000000000
-1.081217129977461 1.977322637755354 3.861000000000000
-1.082057236527560 1.989448627790597 3.864000000000000
-1.083457414111058 2.002626277796353 3.869000000000000
-1.080657058944061 2.008026101302872 3.859000000000000
-0.999401680213100 -0.317369611330662 3.604000000000000
-1.002452018304761 -0.308431071622370 3.615000000000000
-1.003561232156274 -0.298854184594641 3.619000000000000
-1.004947749470665 -0.289335211545524 3.624000000000000
-1.006611570247934 -0.279865930729050 3.630000000000000
-1.006334266785056 -0.269843260634828 3.629000000000000
-1.005779659859299 -0.259754454816025 3.627000000000000
-1.006334266785056 -0.249952116551471 3.629000000000000
-1.007720784099447 -0.240337223132705 3.634000000000000
-1.010493818728229 -0.231011899607001 3.644000000000000
-1.012712246431255 -0.221510455320292 3.652000000000000
-1.015207977597159 -0.212023075700356 3.661000000000000
-1.016039887985793 -0.202155325224865 3.664000000000000
-1.017149101837306 -0.152113745114913 3.668000000000000
-1.021308653780480 -0.142642238945863 3.683000000000000
-1.024636295335018 -0.132980547349035 3.695000000000000
-1.028518543815313 -0.123319579265853 3.709000000000000
-1.032123488832730 -0.113551366728238 3.722000000000000
-1.035451130387269 -0.103684131482162 3.734000000000000
-1.036283040775903 -0.093525879315732 3.737000000000000
-1.036560344238782 -0.083306610831876 3.738000000000000
-1.034896523461512 -0.072945040368773 3.732000000000000
-1.037946861553173 -0.062902046118514 3.743000000000000
-1.038224165016051 -0.052658112396749 3.744000000000000
-1.041551806570590 -0.042533262443613 3.756000000000000
-1.049039000068301 -0.032471391064607 3.783000000000000
-1.047929786216788 -0.022080397713258 3.779000000000000
-1.048207089679667 -0.011726840711894 3.780000000000000
-1.045988661976641 -0.001364546735145 3.772000000000000
-1.046265965439519 0.008975307356270 3.773000000000000
-1.046543268902397 0.019320642611665 3.774000000000000
-1.048207089679667 0.029710758976776 3.780000000000000
-1.050148213919814 0.040144362896905 3.787000000000000
-1.050702820845571 0.050549629199257 3.789000000000000
-1.047929786216788 0.060772877008161 3.779000000000000
-1.054307765862988 0.071562449641806 3.802000000000000
-1.053198552011475 0.081895890771364 3.798000000000000
-1.052366641622840 0.092231710726090 3.795000000000000
-1.049039000068301 0.102307690621180 3.783000000000000
-1.047652482753910 0.112526389063982 3.778000000000000
-1.042106413496346 0.173725338872963 3.758000000000000
-1.045156751588006 0.184563101900320 3.769000000000000
-1.049316303531180 0.195667994935404 3.784000000000000
-1.049316303531180 0.206038357185532 3.784000000000000
-1.049316303531180 0.216408719435659 3.784000000000000
-1.047097875828154 0.226299633310130 3.776000000000000
-1.048484393142545 0.236961429049073 3.781000000000000
-1.043492930810737 0.246146149756362 3.763000000000000
-1.039333378867564 0.255436667890793 3.748000000000000
-1.040165289256198 0.265921049314032 3.751000000000000
-1.037669558090294 0.275538266746326 3.742000000000000
-1.032955399221365 0.284495157391624 3.725000000000000
-1.028518543815313 0.293437983370148 3.709000000000000
-1.025468205723653 0.302702389239379 3.698000000000000
-1.022972474557749 0.312075694874563 3.689000000000000
-1.021863260706236 0.321836354368214 3.685000000000000
-1.023804384946384 0.332565941143261 3.692000000000000
-1.023804384946384 0.342684169850309 3.692000000000000
-1.023527081483505 0.352706839944531 3.691000000000000
-1.018812922614576 0.361151241757700 3.674000000000000
-1.017426405300184 0.370714941104893 3.669000000000000
-1.016039887985793 0.380251234632186 3.664000000000000
-1.016317191448671 0.390399247984302 3.665000000000000
-1.014930674134281 0.399897173363735 3.660000000000000
-1.017981012225941 0.411159726599541 3.671000000000000
-1.018258315688819 0.421335145771556 3.672000000000000
-1.019644833003210 0.431985979182539 3.677000000000000
-1.017981012225941 0.441341756055316 3.671000000000000
-1.019367529540332 0.452017254704209 3.676000000000000
-1.019644833003210 0.502525819022928 3.677000000000000
-1.021031350317601 0.513299978623460 3.682000000000000
-1.019922136466088 0.522822207483981 3.678000000000000
-1.019367529540332 0.532612289865876 3.676000000000000
-1.018812922614576 0.542391409919810 3.674000000000000
-1.016871798374428 0.551407716382651 3.667000000000000
-1.016317191448671 0.561151208870716 3.665000000000000
-1.018812922614576 0.572598104613496 3.674000000000000
-1.020476743391845 0.583618554836305 3.680000000000000
-1.021585957243358 0.594349226881821 3.684000000000000
-1.023249778020627 0.605429969908410 3.690000000000000
-1.027963936889557 0.618378551109113 3.707000000000000
-1.028795847278192 0.629046551525682 3.710000000000000
-1.029627757666826 0.639730995434190 3.713000000000000
-1.028518543815313 0.649206634400881 3.709000000000000
-1.028795847278192 0.659549229074286 3.710000000000000
-1.026854723038044 0.668453171675537 3.703000000000000
-1.028241240352435 0.679517832967009 3.708000000000000
-1.028241240352435 0.689679910985897 3.708000000000000
-1.031014274981217 0.701729373009652 3.718000000000000
-1.030736971518339 0.711727377865964 3.717000000000000
-1.031291578444095 0.722302560251695 3.719000000000000
-1.029627757666826 0.731313023793733 3.713000000000000
-1.028241240352435 0.740490301080337 3.708000000000000
-1.024358991872140 0.747818200753112 3.694000000000000
-1.020754046854723 0.755274546022593 3.681000000000000
-1.019922136466088 0.764738860904501 3.678000000000000
-1.019644833003210 0.774608058407283 3.677000000000000
-1.007720784099447 0.815345921739941 3.634000000000000
-1.014098763745646 0.830528647303541 3.657000000000000
-1.015485281060037 0.841700191292623 3.662000000000000
-1.015485281060037 0.851736202539971 3.662000000000000
-1.012712246431255 0.859418930844154 3.652000000000000
-1.011880336042620 0.868713329642683 3.649000000000000
-1.011048425653986 0.877991284949272 3.646000000000000
-1.011603032579742 0.888470546965354 3.648000000000000
-1.011325729116864 0.898221899442566 3.647000000000000
-1.011880336042620 0.908714864368597 3.649000000000000
-1.012434942968377 0.919218791622589 3.651000000000000
-1.012434942968377 0.929224656468047 3.651000000000000
-1.012434942968377 0.939230521313506 3.651000000000000
-1.012434942968377 0.949236386158965 3.651000000000000
-1.012989549894133 0.959767719232856 3.653000000000000
-1.011880336042620 0.968717166457469 3.649000000000000
-1.010771122191107 0.977644689026162 3.645000000000000
-1.010493818728229 0.987363154519494 3.644000000000000
-1.009939211802473 0.996802442406669 3.642000000000000
-1.010216515265351 1.007060079038385 3.643000000000000
-1.010493818728229 1.017323196834080 3.644000000000000
-1.011603032579742 1.028437550358194 3.648000000000000
-1.011880336042620 1.038719852227819 3.649000000000000
-1.012434942968377 1.049295034613550 3.651000000000000
-1.011880336042620 1.058720619590776 3.649000000000000
-1.010771122191107 1.067549481207829 3.645000000000000
-1.009661908339594 1.076356418168962 3.641000000000000
-1.007166177173690 1.083649622073743 3.632000000000000
-1.006611570247934 1.122846149208246 3.630000000000000
-1.010216515265351 1.136851301502387 3.643000000000000
-1.009939211802473 1.146520436519899 3.642000000000000
-1.009939211802473 1.156501636127448 3.642000000000000
-1.010216515265351 1.166803122071003 3.643000000000000
-1.009939211802473 1.176464035342545 3.642000000000000
-1.010216515265351 1.186771002450080 3.643000000000000
-1.010493818728229 1.197083450721595 3.644000000000000
-1.009661908339594 1.206076385501225 3.641000000000000
-1.009107301413838 1.215386866034871 3.639000000000000
-1.009661908339594 1.226033303552342 3.641000000000000
-1.011880336042620 1.238727525857391 3.649000000000000
-1.014098763745646 1.251465597474279 3.657000000000000
-1.013266853357011 1.260453051089929 3.654000000000000
-1.011880336042620 1.268728676901827 3.649000000000000
-1.011325729116864 1.278028195107513 3.647000000000000
-1.012712246431255 1.289788964224443 3.652000000000000
-1.013266853357011 1.300509397455644 3.654000000000000
-1.013266853357011 1.310523484047072 3.654000000000000
-1.014376067208524 1.321983150901925 3.658000000000000
-1.014376067208524 1.332008199821314 3.658000000000000
-1.013544156819890 1.340932620051194 3.655000000000000
-1.012434942968377 1.349470979977308 3.651000000000000
-1.013821460282768 1.361338631791847 3.656000000000000
-1.014376067208524 1.372108395498868 3.658000000000000
-1.014098763745646 1.381755605860460 3.657000000000000
-1.011880336042620 1.388733281079570 3.649000000000000
-1.017703708763063 1.447015122531421 3.670000000000000
-1.020476743391845 1.461043284751950 3.680000000000000
-1.022140564169114 1.473527205757414 3.686000000000000
-1.024913598797896 1.487654028929583 3.696000000000000
-1.027686633426679 1.501835663741552 3.706000000000000
-1.031014274981217 1.516888080112692 3.718000000000000
-1.034619219998634 1.532416995993269 3.731000000000000
-1.037114951164538 1.546363302510921 3.740000000000000
-1.039056075404686 1.559526526093081 3.747000000000000
-1.040442592719077 1.571890223247809 3.752000000000000
-1.042938323884981 1.585968077700980 3.761000000000000
-1.045156751588006 1.599670834178346 3.769000000000000
-1.046820572365275 1.612563101900319 3.775000000000000
-1.048207089679667 1.625058346990567 3.780000000000000
-1.048484393142545 1.635850397110330 3.781000000000000
-1.049039000068301 1.647083319173659 3.783000000000000
-1.049039000068301 1.657450940841797 3.783000000000000
-1.049316303531180 1.668259434453500 3.784000000000000
-1.049039000068301 1.678186184178072 3.783000000000000
-1.049039000068301 1.688553805846209 3.783000000000000
-1.047375179291032 1.696226865377131 3.777000000000000
-1.046543268902397 1.705222540738751 3.774000000000000
-1.046265965439519 1.715110922315463 3.773000000000000
-1.047652482753910 1.727737715341230 3.778000000000000
-1.048761696605423 1.739931858169401 3.782000000000000
-1.049870910456936 1.752147925653492 3.786000000000000
-1.049593606994058 1.762058231886123 3.785000000000000
-1.041551806570590 1.758851279577731 3.756000000000000
-1.050425517382693 1.815361466320988 3.788000000000000
-1.057358103954648 1.837792307734470 3.813000000000000
-1.060963048972065 1.854543523182583 3.826000000000000
-1.062904173212212 1.868441222738061 3.833000000000000
-1.062904173212212 1.878945873505698 3.833000000000000
-1.063736083600847 1.890929353277462 3.836000000000000
-1.064845297452360 1.903424960124532 3.840000000000000
-1.065399904378116 1.914945643296810 3.842000000000000
-1.065399904378116 1.925474959302357 3.842000000000000
-1.066509118229629 1.938019896625247 3.846000000000000
-1.066509118229629 1.948560174958754 3.846000000000000
-1.069004849395533 1.963684931732102 3.855000000000000
-1.069559456321290 1.975274129454131 3.857000000000000
-1.072332490950072 1.990993230762484 3.867000000000000
-1.072887097875828 2.002626277796353 3.869000000000000
-1.069836759784168 2.007505752481597 3.858000000000000
-0.988731644013387 -0.326974265935114 3.601000000000000
-0.991202786694898 -0.317897973613677 3.610000000000000
-0.993948500785466 -0.308857670614932 3.620000000000000
-0.995595929239806 -0.299432239110297 3.626000000000000
-0.996145072057920 -0.289654566083654 3.628000000000000
-0.996968786285090 -0.279943028781592 3.631000000000000
-0.999439928966601 -0.270661192810905 3.640000000000000
-0.999989071784714 -0.260828708144462 3.642000000000000
-0.999165357557544 -0.250640879617196 3.639000000000000
-0.998341643330374 -0.240469494581869 3.636000000000000
-0.999989071784714 -0.230885109321816 3.642000000000000
-1.002460214466225 -0.221449800759689 3.651000000000000
-1.004931357147736 -0.211965161721743 3.660000000000000
-1.010422785328871 -0.152611390954983 3.680000000000000
-1.014815927873779 -0.143145727706736 3.696000000000000
-1.016737927737177 -0.133268461930576 3.703000000000000
-1.018934499009631 -0.123386076747258 3.711000000000000
-1.021405641691141 -0.113490350410813 3.720000000000000
-1.024700498599822 -0.103628596328716 3.732000000000000
-1.026897069872277 -0.093600960299929 3.740000000000000
-1.027720784099447 -0.083418042895589 3.743000000000000
-1.026622498463220 -0.073081861184041 3.739000000000000
-1.025249641417936 -0.062750798879650 3.734000000000000
-1.028544498326617 -0.052686241730294 3.746000000000000
-1.030741069599071 -0.042510614274047 3.754000000000000
-1.036232497780206 -0.032394139539473 3.774000000000000
-1.036507069189263 -0.022057026030048 3.775000000000000
-1.036781640598320 -0.011714431356643 3.776000000000000
-1.037056212007377 -0.001366355519258 3.777000000000000
-1.038154497643604 0.008994337957609 3.781000000000000
-1.037879926234547 0.019351359054609 3.780000000000000
-1.038429069052661 0.029726478955071 3.782000000000000
-1.038978211870774 0.040112561183493 3.784000000000000
-1.034859640734923 0.050282806136711 3.769000000000000
-1.041174783143228 0.060981939564686 3.792000000000000
-1.041449354552285 0.071393048787841 3.793000000000000
-1.042273068779455 0.081852764973170 3.796000000000000
-1.043371354415682 0.092353228131526 3.800000000000000
-1.040900211734171 0.102524043125798 3.791000000000000
-1.042273068779455 0.113062512675192 3.796000000000000
-1.034585069325866 0.174187620243035 3.768000000000000
-1.035957926371150 0.184758976776308 3.773000000000000
-1.037330783416433 0.195357739129481 3.778000000000000
-1.038429069052661 0.205929457419578 3.782000000000000
-1.039801926097944 0.216580290830561 3.787000000000000
-1.040351068916058 0.227078736920572 3.789000000000000
-1.037605354825490 0.236836085791179 3.779000000000000
-1.035957926371150 0.246800271865733 3.773000000000000
-1.031839355235298 0.256118195820064 3.758000000000000
-1.031290212417185 0.266275516188618 3.756000000000000
-1.026347927054163 0.275243730918698 3.738000000000000
-1.022229355918312 0.284342408313829 3.723000000000000
-1.017561641964347 0.293200638007487 3.706000000000000
-1.017561641964347 0.303357234862395 3.706000000000000
-1.017287070555290 0.313429235432436 3.705000000000000
-1.016188784919063 0.323233744237926 3.701000000000000
-1.014266785055666 0.332746096040955 3.694000000000000
-1.013443070828495 0.342591351819472 3.691000000000000
-1.012619356601325 0.352420164106049 3.688000000000000
-1.010148213919814 0.361642737731785 3.679000000000000
-1.009049928283587 0.371321179765735 3.675000000000000
-1.007951642647360 0.380977697143765 3.671000000000000
-1.008500785465474 0.391251415510598 3.673000000000000
-1.006578785602076 0.400552742500397 3.666000000000000
-1.007127928420190 0.410823720285240 3.668000000000000
-1.007677071238303 0.421105660398042 3.670000000000000
-1.008775356874530 0.431633529376298 3.674000000000000
-1.007402499829247 0.441101308353842 3.669000000000000
-1.005480499965849 0.450295752646032 3.662000000000000
-1.005480499965849 0.500475808882774 3.662000000000000
-1.009049928283587 0.512324123150792 3.675000000000000
-1.010697356737928 0.523248653003952 3.681000000000000
-1.010148213919814 0.533046957131816 3.679000000000000
-1.008226214056417 0.542096150578537 3.672000000000000
-1.004931357147736 0.550355124614263 3.660000000000000
-1.004656785738679 0.560232543863015 3.659000000000000
-1.008226214056417 0.572286401780282 3.672000000000000
-1.010697356737928 0.583777146834902 3.681000000000000
-1.011795642374155 0.594510559462407 3.685000000000000
-1.012619356601325 0.605101823583256 3.688000000000000
-1.016188784919063 0.617377668641713 3.701000000000000
-1.017012499146233 0.628029225566341 3.704000000000000
-1.018659927600574 0.639214110708550 3.710000000000000
-1.019483641827744 0.649906776363028 3.713000000000000
-1.020307356054915 0.660615885509447 3.716000000000000
-1.018659927600574 0.669716788257154 3.710000000000000
-1.018934499009631 0.680067604676529 3.711000000000000
-1.018934499009631 0.690237904441387 3.711000000000000
-1.020856498873028 0.701729373009652 3.718000000000000
-1.019209070418687 0.710769982953580 3.712000000000000
-1.019758213236801 0.721331462429361 3.714000000000000
-1.019758213236801 0.731509983940190 3.714000000000000
-1.018385356191517 0.740690001808784 3.709000000000000
-1.014815927873779 0.748223083373985 3.696000000000000
-1.010422785328871 0.755069364130167 3.680000000000000
-1.011795642374155 0.766194318225418 3.685000000000000
-1.011246499556041 0.775872036745723 3.683000000000000
-0.996968786285090 0.814672823840871 3.631000000000000
-1.001087357420941 0.828030475271728 3.646000000000000
-1.003833071511509 0.840321108510603 3.656000000000000
-1.004931357147736 0.851271027115318 3.660000000000000
-1.004107642920566 0.860595572315737 3.657000000000000
-1.003558500102452 0.870141742900522 3.655000000000000
-1.002185643057168 0.878954522782458 3.650000000000000
-1.003558500102452 0.890175397247359 3.655000000000000
-1.003283928693395 0.899945933798501 3.654000000000000
-1.003558500102452 0.910209051594197 3.655000000000000
-1.003283928693395 0.919974106981358 3.654000000000000
-1.003558500102452 0.930242705941034 3.655000000000000
-1.003558500102452 0.940259533114452 3.655000000000000
-1.002185643057168 0.948976392626738 3.650000000000000
-1.001087357420941 0.957928580433341 3.646000000000000
-1.001636500239055 0.968451691761262 3.648000000000000
-1.001361928829998 0.978181119582554 3.647000000000000
-1.001087357420941 0.987905066239867 3.646000000000000
-1.000538214602828 0.997349835291022 3.644000000000000
-0.999165357557544 1.005954330941719 3.639000000000000
-0.999439928966601 1.016206486409454 3.640000000000000
-1.000263643193771 1.027027959417462 3.643000000000000
-1.000812786011885 1.037581217147273 3.645000000000000
-1.001361928829998 1.048145437205045 3.647000000000000
-1.000538214602828 1.057269919920194 3.644000000000000
-1.001087357420941 1.067842361723935 3.646000000000000
-0.999439928966601 1.076060797070866 3.640000000000000
-0.995595929239806 1.081859451993225 3.626000000000000
-0.996968786285090 1.123155473216292 3.631000000000000
-1.000263643193771 1.136851301502387 3.643000000000000
-1.000263643193771 1.146835241691926 3.643000000000000
-0.999989071784714 1.156501636127448 3.642000000000000
-0.998341643330374 1.164561117718959 3.636000000000000
-0.997243357694147 1.173233766162582 3.632000000000000
-0.996694214876033 1.182536024950258 3.630000000000000
-0.997243357694147 1.193141353737880 3.632000000000000
-0.998616214739431 1.204751390845360 3.637000000000000
-0.997517929103203 1.213382930559133 3.633000000000000
-0.997517929103203 1.223339464928772 3.633000000000000
-0.999989071784714 1.236351232987837 3.642000000000000
-1.002734785875282 1.249754542514648 3.652000000000000
-1.003283928693395 1.260453051089929 3.654000000000000
-1.002185643057168 1.269076369057733 3.650000000000000
-1.001087357420941 1.277677762369617 3.646000000000000
-1.001361928829998 1.288023097625012 3.647000000000000
-0.999989071784714 1.296238430633129 3.642000000000000
-1.000263643193771 1.306578284724544 3.643000000000000
-1.001361928829998 1.318007805177507 3.647000000000000
-1.003833071511509 1.331279928525622 3.656000000000000
-1.005205928556793 1.343133877430211 3.661000000000000
-1.004656785738679 1.352427914471917 3.659000000000000
-1.004107642920566 1.361710989185663 3.657000000000000
-1.003009357284339 1.370232905619837 3.653000000000000
-1.002185643057168 1.379110735955887 3.650000000000000
-1.000812786011885 1.387210964520425 3.645000000000000
-1.007677071238303 1.447015122531421 3.670000000000000
-1.011795642374155 1.463028397910580 3.685000000000000
-1.013443070828495 1.475526021825995 3.691000000000000
-1.015090499282836 1.488056532725289 3.697000000000000
-1.018110784782460 1.502646152496944 3.708000000000000
-1.021131070282085 1.517296065072379 3.719000000000000
-1.025249641417936 1.533649172618297 3.734000000000000
-1.026897069872277 1.546363302510921 3.740000000000000
-1.028819069735674 1.559526526093081 3.747000000000000
-1.031015641008128 1.573147065110747 3.755000000000000
-1.033761355098695 1.587654829179524 3.765000000000000
-1.035683354962093 1.600944119533224 3.772000000000000
-1.037605354825490 1.614271778034783 3.779000000000000
-1.038703640461717 1.626348075837385 3.783000000000000
-1.040076497507001 1.638878948493502 3.788000000000000
-1.040625640325114 1.650131054630761 3.790000000000000
-1.040625640325114 1.660517860372829 3.790000000000000
-1.039527354688887 1.669141178340632 3.786000000000000
-1.038154497643604 1.677298959126960 3.781000000000000
-1.037605354825490 1.686768393416026 3.779000000000000
-1.035957926371150 1.694430490618988 3.773000000000000
-1.035683354962093 1.704318872195699 3.772000000000000
-1.036232497780206 1.715565497168979 3.774000000000000
-1.037330783416433 1.727737715341230 3.778000000000000
-1.038429069052661 1.739931858169401 3.782000000000000
-1.038703640461717 1.750759535855034 3.783000000000000
-1.038703640461717 1.761127157523172 3.783000000000000
-1.040900211734171 1.816799186595265 3.791000000000000
-1.046117068506250 1.836346365714223 3.810000000000000
-1.049137354005874 1.852119916905554 3.821000000000000
-1.050235639642101 1.864541528038894 3.825000000000000
-1.050235639642101 1.875024254150611 3.825000000000000
-1.052432210914555 1.889450524273334 3.833000000000000
-1.054079639368896 1.902929276541166 3.839000000000000
-1.054903353596066 1.914945643296810 3.842000000000000
-1.054903353596066 1.925474959302357 3.842000000000000
-1.055177925005123 1.936508180637240 3.843000000000000
-1.057099924868520 1.950586758604057 3.850000000000000
-1.059296496140974 1.965213091212050 3.858000000000000
-1.061767638822485 1.980395400207188 3.867000000000000
-1.062865924458712 1.993052701391667 3.871000000000000
-1.063415067276825 2.004696710753496 3.873000000000000
-1.067533638412677 2.023116217119867 3.888000000000000
-0.979437196912779 -0.346904501679977 3.603000000000000
-0.979709036268015 -0.337123726314520 3.604000000000000
-0.979709036268015 -0.327246668822591 3.604000000000000
-0.981611911754662 -0.317986033994179 3.611000000000000
-0.984873984017485 -0.309113630010469 3.623000000000000
-0.986776859504132 -0.299762555976387 3.630000000000000
-0.988136056280309 -0.290213436525381 3.635000000000000
-0.987864216925073 -0.280174322939219 3.634000000000000
-0.990038931766956 -0.270809907752010 3.642000000000000
-0.990854449832662 -0.261043558810149 3.645000000000000
-0.991669967898368 -0.251260766376348 3.648000000000000
-0.990854449832662 -0.241064716103112 3.645000000000000
-0.992757325319309 -0.231519060747740 3.652000000000000
-0.994660200805956 -0.221935037244509 3.659000000000000
-0.996563076292603 -0.212312645593418 3.666000000000000
-0.995475718871662 -0.202044978431620 3.662000000000000
-1.008524007922956 -0.153855505555160 3.710000000000000
-1.011786080185780 -0.144152705228482 3.722000000000000
-1.011514240830544 -0.133916269739042 3.721000000000000
-1.012873437606721 -0.123884807857797 3.726000000000000
-1.014776313093368 -0.113886956474077 3.733000000000000
-1.018853903421898 -0.104072877556278 3.748000000000000
-1.020213100198074 -0.093926311231453 3.753000000000000
-1.021300457619015 -0.083730052673986 3.757000000000000
-1.020756778908545 -0.073394594476083 3.755000000000000
-1.021572296974250 -0.063154124849953 3.758000000000000
-1.022115975684721 -0.052883147065111 3.760000000000000
-1.026193566013251 -0.042748420054483 3.775000000000000
-1.029727477631309 -0.032514308578570 3.788000000000000
-1.028640120210368 -0.022109612317272 3.784000000000000
-1.027824602144662 -0.011729943050706 3.781000000000000
-1.027280923434192 -0.001367079032903 3.779000000000000
-1.027824602144662 0.008994337957609 3.781000000000000
-1.027552762789427 0.019351359054609 3.780000000000000
-1.027552762789427 0.029710758976776 3.780000000000000
-1.027280923434192 0.040059558327806 3.779000000000000
-1.031358513762721 0.050616334964893 3.794000000000000
-1.022931493750427 0.060515569246285 3.763000000000000
-1.031630353117956 0.071430693422055 3.795000000000000
-1.030542995697015 0.081744950477683 3.791000000000000
-1.033261389249368 0.092377531612613 3.801000000000000
-1.031902192473192 0.102659263441184 3.796000000000000
-1.034076907315074 0.113300789835729 3.804000000000000
-1.028640120210368 0.174927270435150 3.784000000000000
-1.029183798920839 0.185395570123271 3.786000000000000
-1.028368280855133 0.195616285634417 3.783000000000000
-1.028640120210368 0.206038357185532 3.784000000000000
-1.030814835052251 0.216866243155396 3.792000000000000
-1.028368280855133 0.226719150638830 3.783000000000000
-1.020484939553309 0.235269295067500 3.754000000000000
-1.028911959565604 0.247585218396979 3.785000000000000
-1.025921726658015 0.257208640506898 3.774000000000000
-1.024018851171368 0.267055343312706 3.767000000000000
-1.018038385356192 0.275759168617047 3.745000000000000
-1.016407349224780 0.285564400936183 3.739000000000000
-1.011786080185780 0.294466479941680 3.722000000000000
-1.011514240830544 0.304585070405551 3.721000000000000
-1.008524007922956 0.313852216856772 3.710000000000000
-1.007980329212486 0.323845102305926 3.708000000000000
-1.005805614370603 0.333286560734037 3.700000000000000
-1.005261935660133 0.343241078035331 3.698000000000000
-1.003902738883956 0.352897957170185 3.693000000000000
-1.001456184686838 0.362134233705870 3.684000000000000
-1.001184345331603 0.372129497980191 3.683000000000000
-0.999281469844956 0.381496598937750 3.676000000000000
-0.999009630489721 0.391464457392172 3.675000000000000
-0.996291236937368 0.400443480977620 3.665000000000000
-0.997106755003074 0.410823720285240 3.668000000000000
-0.996563076292603 0.420646689651014 3.666000000000000
-0.998465951779250 0.431516046107551 3.673000000000000
-0.996563076292603 0.440740636801631 3.666000000000000
-0.994660200805956 0.449926859347851 3.659000000000000
-0.989495253056485 0.487493408900314 3.640000000000000
-0.997378594358309 0.501432480281513 3.669000000000000
-0.996563076292603 0.511069451828790 3.666000000000000
-0.996563076292603 0.521116425404099 3.666000000000000
-0.998737791134485 0.532322511688582 3.674000000000000
-0.997650433713544 0.541800891237263 3.670000000000000
-0.996563076292603 0.551257346130024 3.666000000000000
-0.995747558226897 0.560844987201482 3.663000000000000
-0.998465951779250 0.572442253196889 3.673000000000000
-1.000640666621132 0.583777146834902 3.681000000000000
-1.001728024042074 0.594510559462407 3.685000000000000
-1.002543542107780 0.605101823583256 3.688000000000000
-1.004718256949662 0.616543599918879 3.696000000000000
-1.006077453725839 0.627520562586671 3.701000000000000
-1.008252168567721 0.639041815800003 3.709000000000000
-1.008524007922956 0.649381669891418 3.710000000000000
-1.009339525988662 0.660082557291866 3.713000000000000
-1.009067686633427 0.670077821566188 3.712000000000000
-1.009611365343897 0.680617376386049 3.714000000000000
-1.010426883409603 0.691353891352368 3.717000000000000
-1.010155044054368 0.701351896208679 3.716000000000000
-1.009067686633427 0.710769982953580 3.712000000000000
-1.010426883409603 0.721914121122762 3.717000000000000
-1.011514240830544 0.732888704965386 3.721000000000000
-1.009339525988662 0.741488804722571 3.713000000000000
-1.006077453725839 0.749235289926169 3.701000000000000
-1.001184345331603 0.755684909807447 3.683000000000000
-1.001999863397309 0.766402240699835 3.686000000000000
-1.000640666621132 0.775450710632910 3.681000000000000
-0.989223413701250 0.816467751571724 3.639000000000000
-0.993029164674544 0.829620221110155 3.653000000000000
-0.994388361450721 0.840780802771276 3.658000000000000
-0.995475718871662 0.851736202539971 3.662000000000000
-0.994660200805956 0.861066228904370 3.659000000000000
-0.995203879516427 0.871570156158362 3.661000000000000
-0.993844682740250 0.880399379532237 3.656000000000000
-0.994932040161191 0.891393147448792 3.660000000000000
-0.994932040161191 0.901423677532161 3.660000000000000
-0.993572843385015 0.910209051594197 3.655000000000000
-0.992485485964074 0.919218791622589 3.651000000000000
-0.993301004029779 0.929988193572787 3.654000000000000
-0.993301004029779 0.940002280164215 3.654000000000000
-0.992485485964074 0.949236386158965 3.651000000000000
-0.991669967898368 0.958454048661774 3.648000000000000
-0.992213646608838 0.968982641153675 3.650000000000000
-0.992213646608838 0.978985765417144 3.650000000000000
-0.991669967898368 0.988446977960240 3.648000000000000
-0.991398128543132 0.998170924617552 3.647000000000000
-0.990310771122191 1.007060079038385 3.643000000000000
-0.990038931766956 1.016764841621767 3.642000000000000
