# .PCD v0.7 - Point Cloud Data file format
VERSION .7
FIELDS x y z
SIZE 4 4 4
TYPE F F F
COUNT 1 1 1
VIEWPOINT 0 0 0 1 0 0 0
WIDTH 2436
HEIGHT 1
POINTS 2436
DATA ascii
96.30	-44.15	327.90
30.03	52.93	328.10
-20.15	-55.60	343.10
-0.45	-15.55	331.10
6.18	113.37	348.00
-24.78	-34.83	342.30
2.27	12.61	331.80
-32.90	55.36	349.10
-35.06	38.42	351.60
44.32	-39.99	372.90
13.89	-4.61	328.10
-5.05	-27.77	336.30
9.55	63.72	332.80
58.78	-26.80	374.20
-11.89	105.77	348.10
-16.22	-46.62	339.30
8.69	141.27	335.00
-17.15	-27.10	339.40
92.63	72.64	358.80
7.18	112.16	350.20
28.49	-57.28	341.90
-25.99	114.58	345.90
6.92	81.37	337.90
24.25	136.63	334.90
15.89	108.07	352.50
2.35	-62.35	344.00
8.96	92.61	345.30
19.58	147.86	333.30
-3.17	22.59	331.40
4.13	137.12	336.10
-20.72	133.80	337.00
-29.58	135.51	343.70
-18.08	-27.09	339.30
-28.31	-22.47	339.70
-7.91	122.23	340.80
13.35	42.36	337.00
17.48	2.58	328.20
-8.76	-49.14	337.50
-30.37	23.31	342.00
89.67	50.29	317.10
-38.18	86.17	353.80
43.04	-49.33	338.80
14.12	139.72	333.50
50.21	-54.72	343.50
93.62	-44.58	331.10
92.56	42.60	318.10
14.31	-51.98	337.90
-33.91	110.06	349.60
69.80	-37.41	367.60
20.74	102.45	353.10
-4.13	67.08	335.90
-3.20	-24.00	335.10
29.02	-31.71	360.10
-23.56	134.27	338.20
-11.80	115.39	345.50
-7.78	-40.51	334.90
43.41	51.06	327.60
-27.10	10.01	336.20
13.20	-24.77	333.10
-36.00	33.58	351.40
44.57	-78.24	375.00
7.75	28.22	333.60
-1.37	-38.72	335.30
47.59	-55.89	344.90
-4.28	-66.85	347.80
-24.25	79.06	348.10
-34.91	-11.64	350.10
7.75	68.51	333.90
2.29	-47.08	336.00
94.41	41.40	315.60
17.87	75.27	335.50
-27.14	80.12	348.60
-31.55	-34.13	344.70
4.26	-65.61	346.30
-33.70	-68.71	357.50
29.08	72.11	337.90
1.38	137.84	335.60
-28.91	-58.12	346.90
11.99	114.34	351.00
-11.81	-64.57	345.80
-12.49	-40.02	338.60
-15.23	32.28	337.80
-12.73	-60.65	345.10
5.06	134.64	336.80
13.89	-12.71	328.10
21.55	-29.55	335.60
-10.44	132.84	332.30
31.22	29.79	341.10
37.61	52.26	323.90
-4.28	101.08	348.40
-20.71	14.65	336.90
17.72	52.76	332.70
-15.72	89.70	348.70
-21.07	-50.84	342.70
31.31	45.40	332.20
12.34	147.47	334.50
16.61	92.23	347.40
-20.52	-70.03	349.40
18.70	69.43	333.90
27.48	52.30	329.80
2.24	-5.51	328.10
-4.08	13.52	331.70
70.12	-29.48	369.30
-15.61	78.62	346.20
-35.21	45.35	353.10
-7.81	-47.14	336.40
5.10	-50.40	339.70
-11.88	93.34	348.00
62.22	46.58	327.70
5.06	35.85	336.60
55.14	-52.18	339.20
81.00	-29.40	368.30
-0.46	53.13	335.00
100.91	48.58	311.70
29.92	59.91	326.90
-40.35	80.83	355.90
-18.07	-26.14	339.10
47.60	-26.83	374.70
21.67	101.31	352.50
24.97	-62.51	344.90
14.84	-76.09	374.50
21.69	41.54	337.80
27.24	41.56	338.00
8.53	-12.73	328.80
22.87	-31.95	341.60
44.49	62.09	329.00
21.87	-37.46	340.60
-28.91	55.02	346.90
12.50	82.54	338.90
67.85	-39.46	367.90
95.94	66.69	363.90
82.44	48.89	319.30
76.11	-30.47	369.00
8.50	-5.50	327.50
16.09	150.20	336.50
28.41	-42.18	341.00
11.75	125.34	344.20
12.64	-61.19	342.80
-39.96	68.44	352.40
11.54	-47.36	338.00
1.35	4.39	329.30
-17.02	-18.58	336.80
-11.25	-4.63	329.40
-19.54	83.99	348.80
-11.80	81.31	345.50
17.97	-41.72	337.30
10.30	0.78	327.90
22.24	63.63	332.30
-9.91	115.39	345.50
-26.70	103.25	342.90
75.45	66.16	361.00
-17.41	-60.55	344.50
10.49	146.34	334.00
-20.62	7.23	335.40
-8.06	111.14	347.00
-7.98	80.86	343.60
-23.38	111.17	335.60
97.77	-26.02	363.30
73.80	-52.27	339.80
10.08	110.65	351.50
18.67	63.82	333.30
-18.61	91.77	349.30
27.33	-42.87	339.10
46.45	-7.00	357.90
-15.19	-21.36	337.00
61.97	-40.56	368.80
38.93	49.26	327.60
42.22	-42.01	347.30
84.84	-30.35	367.50
-25.31	103.35	349.60
-38.17	67.73	353.70
-34.23	41.46	352.90
2.39	-70.23	350.40
-28.07	-60.26	348.30
-19.99	33.46	340.40
28.22	87.21	350.20
20.64	-30.49	335.80
0.46	52.23	335.10
-6.08	119.08	342.50
38.98	48.42	328.00
-12.33	16.37	334.30
34.33	86.22	354.00
3.16	16.20	330.90
25.95	-13.82	333.30
43.79	78.08	352.30
17.53	10.70	329.10
23.91	6.22	330.30
-20.77	19.32	337.90
23.00	141.96	330.20
32.43	-41.62	344.10
-6.00	45.24	337.80
-0.46	35.75	335.60
18.99	-36.37	339.10
-8.62	132.76	332.10
-1.40	121.40	341.10
-10.63	53.64	338.20
-17.81	-72.56	352.40
99.86	67.96	360.10
63.70	47.25	326.10
-11.77	-61.53	344.70
6.00	37.87	338.10
22.79	109.81	355.00
43.99	-51.22	339.00
3.29	-60.43	343.80
-1.36	20.80	331.90
26.64	1.69	330.60
5.86	17.98	330.20
75.62	-52.24	339.60
-18.64	0.79	332.80
29.50	3.52	332.20
-40.97	-24.69	344.70
-18.87	21.11	336.90
-16.39	113.59	342.90
-4.07	22.58	331.30
-8.94	-63.38	344.50
-2.37	92.94	346.50
-24.08	69.04	345.70
21.14	-61.39	343.90
44.60	46.88	329.80
-34.34	81.39	354.10
24.06	-13.78	332.30
9.64	-36.98	336.20
28.68	-13.82	333.30
-20.02	54.05	340.80
64.94	-35.48	368.50
18.67	148.81	333.40
-29.41	16.73	341.70
78.15	47.71	323.20
32.76	-21.08	347.60
-20.70	117.10	336.80
-19.03	51.08	339.70
11.54	80.47	338.00
-18.18	45.71	341.30
-11.57	64.87	338.80
15.68	93.29	347.80
-5.22	111.33	347.60
5.12	124.13	340.90
-10.86	87.04	345.70
-12.28	11.74	333.00
21.19	12.54	330.00
9.43	-12.73	328.60
4.13	76.31	336.00
13.60	89.26	343.30
1.35	-13.69	330.20
4.06	13.45	330.20
8.51	3.48	327.90
33.19	8.09	332.80
-6.03	-53.17	339.60
-4.12	32.06	335.50
-22.02	-50.87	342.90
27.82	12.69	333.90
11.77	-77.13	374.60
-6.96	74.33	339.60
-27.73	-35.02	344.10
8.66	72.13	333.70
21.65	44.24	337.20
-12.48	56.47	338.50
10.58	133.64	336.60
10.78	-60.32	343.20
4.94	11.59	328.70
-27.35	72.08	351.30
-2.26	22.59	331.50
32.12	-18.80	340.80
25.37	136.85	337.70
-21.95	35.48	341.90
8.73	-35.17	336.50
14.30	39.67	337.70
-3.16	8.04	330.80
6.18	114.26	347.80
13.01	-3.72	328.30
47.36	-34.87	372.80
5.97	-36.03	336.00
23.83	-6.43	329.20
20.19	-3.72	328.40
6.95	-48.49	339.40
5.98	35.90	337.00
22.95	135.20	342.90
25.42	27.69	338.30
10.55	-30.49	335.80
23.80	108.05	355.60
-7.74	15.40	333.10
10.25	-7.27	326.10
-18.86	119.84	336.70
24.83	-38.66	343.00
25.17	43.03	335.00
17.41	88.62	344.50
5.81	-6.39	326.90
-8.25	-75.06	355.10
-20.14	66.60	342.90
19.87	105.83	354.70
32.53	-19.99	345.10
3.22	34.96	336.90
26.40	-51.24	339.10
-15.28	36.11	339.00
37.69	51.48	324.60
9.14	-70.57	352.10
20.89	115.84	355.60
14.98	-23.80	332.30
19.92	80.75	339.20
100.88	-21.07	363.80
17.52	4.39	328.80
8.68	74.09	334.30
0.47	117.35	345.70
103.20	42.33	316.10
-2.25	-1.02	328.70
14.54	89.26	343.30
2.34	121.00	342.60
0.46	38.60	336.40
18.63	141.21	332.70
55.34	-28.66	371.70
-2.30	35.81	336.20
-38.13	-52.41	353.30
23.81	82.28	341.70
-3.16	5.31	330.20
-24.84	-39.62	343.10
0.45	17.15	331.60
19.57	142.33	333.20
12.09	0.78	327.80
-22.85	109.35	341.40
22.29	17.22	333.00
11.80	123.00	345.60
-39.32	-22.94	346.80
8.77	38.76	337.80
15.66	125.58	347.50
25.77	5.32	330.90
4.22	121.32	343.50
-14.28	-45.40	337.20
36.11	-35.85	372.30
16.01	119.57	355.10
-11.60	-52.26	339.70
51.53	-42.10	373.50
7.82	47.85	336.60
41.77	81.75	351.50
58.25	-35.70	370.80
27.46	53.16	329.50
71.16	76.74	364.30
-22.48	112.19	335.90
-17.78	2.62	333.70
85.68	-45.16	335.40
57.77	-50.19	338.30
23.46	42.32	336.70
12.42	33.10	336.70
11.48	132.56	336.20
3.33	108.69	348.30
-15.30	118.01	339.40
-0.47	116.51	346.00
-17.06	-20.48	337.60
-23.57	-73.46	352.10
-6.82	-15.62	332.70
21.31	53.55	331.90
18.53	-18.25	330.80
-11.42	14.54	334.40
-28.87	34.06	346.50
-28.23	4.52	338.80
25.67	95.11	354.60
-36.01	71.16	351.50
18.93	-50.14	338.00
-9.66	-27.82	336.90
25.89	11.73	332.50
15.65	6.16	327.40
53.40	-30.74	372.30
4.97	19.84	331.00
45.12	-59.21	347.70
0.45	16.28	332.50
44.37	-4.04	356.90
-21.44	147.04	348.70
31.67	-21.93	346.00
83.21	52.00	322.30
17.73	123.89	350.80
99.78	51.01	316.20
41.80	85.66	351.70
4.10	66.52	333.10
-17.10	-23.30	338.30
4.15	37.78	337.30
-15.13	124.96	335.60
-40.50	79.16	357.20
-36.30	9.33	345.10
79.63	-35.75	371.30
57.42	76.00	365.50
-6.00	73.08	338.10
32.47	6.30	334.80
76.77	67.44	362.60
-5.15	120.96	342.50
16.58	2.58	328.00
17.12	38.86	338.70
45.43	48.61	329.30
55.22	-78.83	377.80
59.10	-32.56	369.80
-8.73	-27.79	336.50
-42.06	-52.74	362.20
23.87	5.30	329.70
-20.05	108.38	341.30
-17.31	-52.67	342.40
60.36	73.93	365.20
-31.01	41.04	349.30
6.88	136.16	336.00
30.86	71.04	337.20
11.73	87.40	343.40
42.84	-57.73	344.60
-28.79	-50.31	345.50
53.71	76.56	354.20
71.26	50.50	324.00
91.68	70.69	358.90
-10.89	112.94	346.70
-2.29	50.45	335.50
86.71	-29.29	366.90
4.03	-3.71	327.80
-8.86	-56.25	341.30
29.44	38.32	342.10
26.05	86.34	346.70
22.16	-13.73	331.10
21.83	105.95	355.10
-24.04	54.73	345.10
13.02	-5.52	328.60
46.22	43.95	335.00
-35.32	-62.25	354.20
5.05	131.48	335.80
13.55	-58.25	342.10
-29.06	46.71	348.80
6.72	0.78	328.20
45.49	-31.93	374.20
-41.99	-20.00	345.40
-23.57	133.39	338.30
-20.02	46.59	340.90
-40.19	42.62	354.50
-28.09	-62.21	348.50
-1.34	-6.37	326.10
8.71	138.76	335.60
-25.33	-13.06	337.20
2.37	113.93	346.80
-20.08	47.65	341.80
7.83	-35.23	337.10
32.13	85.51	351.10
-5.04	-26.77	335.30
26.53	-56.15	340.70
-23.11	50.96	345.20
19.88	108.84	355.00
-4.98	8.05	331.20
-4.15	47.93	337.20
12.09	-3.71	327.90
-1.39	122.84	339.90
-3.24	124.41	339.10
-19.45	-66.73	347.20
21.99	-0.12	328.50
17.01	-33.32	336.50
-2.25	-12.76	329.50
45.13	-53.33	340.60
13.31	76.29	335.90
-29.18	-16.85	339.10
10.34	13.41	329.20
7.65	16.13	329.40
-13.44	-40.11	339.30
-8.81	74.29	339.40
9.62	76.13	335.20
-12.17	-2.83	330.00
30.49	-5.60	333.10
2.36	-63.49	345.10
-14.50	117.14	342.30
63.55	-55.03	339.60
-30.77	-48.56	346.50
-7.11	99.70	346.90
18.73	-27.61	334.40
67.78	76.30	362.20
21.14	-1.92	329.20
-5.97	52.41	336.30
-15.34	-39.30	340.40
-33.74	-16.33	347.90
28.79	-78.15	369.70
-11.29	-3.74	330.50
1.33	-7.24	324.70
-17.21	-38.39	340.60
49.36	45.31	331.50
0.47	119.36	343.30
28.85	-61.80	346.20
-4.97	7.13	330.50
5.20	117.42	345.90
-2.33	148.69	341.50
13.89	7.97	327.90
1.35	10.73	330.00
95.92	74.87	360.10
71.34	-28.56	370.40
8.16	109.69	351.50
-25.97	45.35	345.70
36.43	90.50	355.60
-29.36	-67.71	352.30
11.23	10.70	328.90
-32.91	5.46	339.30
29.72	12.72	334.70
-30.07	8.23	338.70
71.83	-33.39	367.70
29.24	51.32	329.30
21.63	128.10	351.80
20.73	95.65	353.00
17.08	81.37	337.90
17.04	80.28	337.20
-40.07	44.42	353.40
-24.73	115.96	341.60
-17.31	113.42	342.40
-4.27	94.02	347.00
20.85	109.81	355.00
28.60	-4.67	332.30
-6.18	112.41	348.00
12.06	108.25	353.10
51.50	49.29	327.80
-13.18	11.73	332.60
71.15	48.64	323.50
49.30	-54.76	343.70
-18.53	80.92	347.90
4.98	-17.36	331.10
-31.27	47.17	352.20
81.62	-34.71	371.10
2.24	-2.82	328.20
24.76	3.49	329.60
89.25	51.42	318.70
-5.11	-53.20	339.80
-18.48	105.37	346.80
62.03	70.56	363.30
85.09	-26.40	368.60
-32.03	68.94	350.00
-39.51	-40.24	348.50
-27.22	100.47	349.60
-15.77	-70.11	349.80
22.81	110.85	355.20
8.65	55.60	333.30
-26.31	16.55	337.90
-40.81	3.64	343.40
-2.29	66.04	335.30
9.76	-53.27	340.20
6.89	-37.91	336.30
61.79	-26.77	373.80
42.21	-36.87	372.30
33.53	91.50	355.70
18.98	-37.27	338.90
-11.38	131.34	333.10
26.88	-18.40	333.50
-10.43	135.45	332.00
28.56	65.37	331.90
78.86	68.53	363.10
-15.40	-57.25	341.70
9.66	-40.75	336.90
10.01	114.58	348.80
24.44	41.51	337.60
5.08	83.34	338.40
19.31	5.29	328.80
-15.05	9.03	333.80
74.08	-31.47	368.90
-9.88	81.02	344.30
-12.64	-58.37	342.80
6.04	-55.08	339.90
49.63	77.20	352.70
93.17	51.66	320.20
-13.66	110.47	344.90
91.01	-22.33	368.10
-6.91	-31.53	337.10
45.01	-42.75	370.20
-25.90	-53.03	344.70
17.60	-17.32	330.40
-34.88	57.39	349.80
99.05	43.38	311.20
20.83	-51.21	338.90
28.98	-20.42	336.70
0.45	5.30	329.40
-35.20	2.70	343.60
-20.47	-2.86	333.00
-5.89	12.60	331.60
-13.35	-21.36	336.90
20.46	146.72	332.80
-7.83	-36.17	337.30
10.49	72.19	334.00
-40.55	-15.44	349.20
-32.06	-1.06	340.10
-24.01	66.93	344.60
15.04	72.13	333.70
16.52	-65.46	345.50
42.83	86.77	352.30
-7.82	35.88	336.80
27.91	43.03	335.00
-27.81	36.76	345.10
32.80	-51.10	338.20
-10.46	-12.89	332.80
-28.06	-61.20	348.20
-31.01	110.89	349.20
-5.04	-24.04	335.70
27.75	44.60	333.00
14.93	16.21	331.10
-4.16	-52.06	338.40
16.77	144.42	331.70
-3.33	104.81	348.10
-37.81	-15.49	350.40
-35.91	67.11	350.50
-8.65	28.18	333.10
-0.45	12.57	330.80
-27.54	103.82	341.70
14.97	63.59	332.10
52.41	-38.93	372.50
-33.06	69.09	350.80
75.64	67.31	361.90
-33.23	108.10	352.60
13.94	109.85	352.00
-34.03	69.11	350.90
13.26	-27.64	334.70
35.02	75.75	341.80
-6.75	-2.83	329.30
32.40	8.12	334.10
-15.25	-27.94	338.40
66.07	-30.49	369.20
26.08	18.24	335.00
23.21	-19.30	333.20
-3.22	-47.13	336.30
-4.11	29.20	334.30
-8.08	106.63	347.80
-31.12	24.10	340.00
65.94	-37.50	368.50
22.61	-41.78	337.80
-42.15	-11.53	346.70
-23.19	73.94	346.50
98.30	-42.44	328.60
4.24	-60.55	344.50
14.93	-19.19	331.30
41.49	52.69	326.60
11.49	45.97	336.40
-5.24	102.16	348.80
10.53	30.19	335.20
57.65	-57.48	343.10
29.28	32.51	340.20
-43.93	76.11	361.30
27.76	47.35	333.10
12.61	-58.20	341.80
30.61	6.29	334.40
-6.01	125.00	338.20
-24.00	48.03	344.50
-20.06	-40.37	341.50
47.75	51.81	326.70
-31.46	-45.34	343.70
71.68	70.29	361.90
62.00	69.53	363.10
7.10	-65.65	346.50
-29.30	74.07	351.60
79.68	71.36	362.30
5.20	-62.73	346.10
21.81	37.12	339.70
1.36	-18.31	331.90
-2.25	7.11	329.90
19.67	-28.57	334.80
24.94	50.82	331.90
-8.77	53.59	337.90
-23.37	-65.18	349.10
17.54	-14.55	329.20
-0.45	3.50	329.80
4.03	-11.80	327.90
2.29	74.33	335.40
-10.49	138.10	334.00
-31.01	78.37	349.30
-26.12	-63.00	347.60
-7.96	150.24	342.90
2.27	17.15	331.70
25.75	-57.42	342.70
13.33	78.29	336.60
8.02	118.13	345.20
15.50	88.44	343.80
-4.14	-37.92	336.40
22.31	48.29	333.30
-29.81	-53.29	346.40
-37.09	-23.67	343.70
54.89	-7.08	362.00
11.19	-3.71	327.80
70.40	67.03	360.40
55.52	75.78	359.70
11.46	136.92	335.60
-12.74	-63.57	345.50
22.48	73.50	335.80
-32.97	-62.44	349.80
-5.05	-38.83	336.30
7.15	113.60	348.70
-27.36	102.92	351.40
99.64	47.53	310.40
48.47	-31.87	373.50
18.68	128.63	350.60
-13.15	5.34	332.00
15.02	141.46	333.30
-22.37	-2.87	334.20
31.02	-50.28	338.90
0.46	78.61	338.00
26.40	-50.29	339.00
3.28	-58.35	342.70
22.32	19.98	333.40
17.74	143.16	333.00
-5.06	55.24	336.70
48.78	-80.49	375.90
22.91	2.59	328.90
2.29	-34.18	335.90
43.50	73.71	349.90
64.95	-39.53	368.60
-10.65	-51.22	339.00
13.37	-51.93	337.60
-30.01	112.64	348.70
-35.16	-20.82	343.20
92.26	-43.40	336.00
-27.79	33.89	344.80
6.09	-58.37	342.80
3.22	38.69	337.20
-9.72	42.59	338.80
-19.80	-17.67	337.00
16.89	-26.67	334.10
43.25	-35.87	372.50
-9.00	111.11	346.90
-23.81	-27.28	341.70
-16.74	102.54	350.10
-4.05	-0.12	329.40
-20.65	131.56	336.00
-27.92	51.14	346.40
88.74	-28.29	367.00
66.95	-38.51	368.50
40.23	46.13	330.90
-19.61	101.58	350.10
-2.29	49.59	335.90
-29.45	-28.26	342.20
-24.86	-49.06	343.40
-12.18	-3.74	330.20
-18.15	-38.41	340.70
-39.05	54.03	352.90
-22.89	45.80	342.00
-15.77	103.44	349.90
96.56	67.72	358.80
64.95	-37.51	368.60
-19.08	-48.66	340.60
23.18	21.76	332.70
-42.81	76.87	360.20
51.39	-8.97	358.30
7.72	-23.82	332.60
4.30	108.14	349.60
-12.50	-30.76	338.80
-8.93	83.83	344.20
9.84	123.92	342.90
7.80	137.00	335.80
-3.33	-66.92	348.20
0.46	64.97	334.50
-18.23	144.30	342.20
-27.19	10.97	337.40
-15.37	44.73	341.00
-36.84	58.42	350.20
9.50	18.93	331.00
28.80	95.83	357.30
16.59	3.48	328.30
-20.33	-65.57	346.10
33.67	-24.60	357.20
41.23	-54.02	339.10
24.91	103.73	357.50
-20.99	-31.94	341.40
21.42	68.47	333.70
-9.66	57.07	336.60
10.53	138.64	335.30
-0.46	40.46	336.50
-8.74	64.51	336.90
57.59	-27.74	373.10
-7.02	81.61	342.80
11.20	0.78	327.90
-33.41	-3.90	344.50
-27.07	-60.16	347.70
13.65	91.46	344.50
99.02	-40.03	331.00
0.46	32.98	335.50
-15.57	-64.51	345.50
15.24	-39.04	338.10
-35.33	103.77	354.30
-0.46	-53.24	340.00
5.84	7.09	329.00
90.02	71.91	360.10
6.73	3.48	328.40
6.99	85.83	340.90
-10.17	-75.93	354.60
-11.32	1.70	331.40
-11.91	104.07	348.80
18.89	113.57	354.60
5.03	141.18	334.80
77.08	-31.47	368.80
-13.61	148.62	343.50
-20.10	41.14	342.20
89.41	-22.43	369.80
-22.82	57.80	340.90
58.30	49.88	325.80
-31.84	59.94	347.90
-32.22	8.31	341.80
-1.37	63.11	334.40
-7.03	147.42	342.90
-5.06	50.67	337.00
4.11	-27.62	334.50
28.27	-37.95	363.10
-17.29	-51.69	342.10
-5.95	-20.32	335.00
7.85	148.97	337.90
29.48	-0.12	332.00
15.85	18.96	331.50
-20.71	10.96	336.90
-2.30	71.87	336.80
-20.09	43.00	342.10
-20.97	109.25	341.10
-27.65	-31.15	343.10
-17.21	52.15	340.60
-33.13	46.11	351.50
15.82	18.02	330.90
9.58	72.21	334.10
76.90	49.26	321.70
16.84	64.69	333.10
-13.58	-58.39	342.90
-5.23	104.84	348.20
5.01	67.45	333.20
64.00	-38.55	368.90
-4.15	125.63	337.40
14.30	-39.92	337.70
-35.30	-30.35	344.60
24.93	12.61	331.80
83.70	46.48	320.80
-38.41	-3.93	347.10
-40.34	-20.12	347.40
-22.64	12.85	338.20
-34.58	-36.24	346.80
-17.20	65.16	340.30
66.87	76.39	362.60
-7.74	-15.66	333.50
-22.58	120.05	337.30
62.41	44.92	328.70
100.57	-42.26	327.20
6.86	74.22	334.90
69.29	51.24	323.10
87.26	49.53	317.80
11.44	141.22	334.90
-2.29	-26.76	335.20
20.81	33.27	338.50
-47.07	75.41	362.70
-18.07	-25.21	339.10
32.18	41.04	341.40
-29.56	-30.25	343.50
-37.35	-18.15	346.10
16.84	66.54	333.20
-37.04	6.46	343.20
27.71	150.28	332.60
-0.47	-59.38	343.20
-24.56	13.82	339.20
23.68	126.86	353.70
5.98	132.72	336.60
12.78	-77.05	374.20
-18.34	-58.61	344.20
-20.06	43.86	341.50
9.55	66.48	332.90
-10.64	51.84	338.60
-44.77	-32.96	352.40
-29.38	21.40	341.40
-4.08	14.44	332.10
7.82	133.68	336.70
-21.10	-51.87	343.30
5.26	107.24	349.80
72.62	51.98	322.20
-31.54	-68.27	355.20
11.32	21.68	331.40
-17.26	69.13	341.50
-18.85	19.24	336.50
10.41	18.95	331.30
40.59	-55.34	341.50
12.49	-53.03	338.70
13.24	145.51	334.20
84.22	73.85	364.80
13.00	8.87	328.10
55.63	70.00	360.40
4.14	-48.15	337.00
-28.94	-3.81	336.30
78.00	-33.45	368.40
-17.35	108.04	343.20
28.19	-75.20	375.20
-16.82	1.70	332.80
-23.65	-21.52	339.50
31.84	16.54	337.80
-4.15	-51.02	337.70
-10.59	40.53	337.10
-32.97	32.47	349.80
100.14	-23.12	364.70
-22.87	32.65	341.70
-19.08	44.70	340.70
42.64	-31.06	376.10
-5.89	-12.84	331.50
31.72	10.94	336.50
-35.52	84.80	356.20
0.45	19.93	332.60
-18.62	-4.68	332.50
16.12	43.30	337.10
-17.86	133.12	335.30
-42.77	77.79	359.90
78.78	51.98	322.20
-13.48	53.95	340.20
23.70	125.99	354.00
-19.76	134.48	336.40
-6.92	72.05	337.60
-13.29	-19.43	335.50
72.68	-51.21	338.90
-3.23	73.85	337.40
-42.15	-12.48	346.70
-24.40	77.64	350.30
4.22	89.18	343.00
7.87	83.47	338.90
-22.97	35.61	343.10
-7.72	14.45	332.30
-33.01	50.74	350.20
85.32	50.80	320.30
-12.46	123.93	337.80
21.93	-57.21	341.50
-13.45	38.02	339.50
-38.18	84.23	353.80
-8.95	115.16	344.80
22.89	60.20	328.50
87.45	71.24	361.70
-22.97	106.16	343.20
-18.05	-24.26	338.80
18.00	-78.53	376.40
-22.46	93.82	349.80
-29.25	101.84	351.00
-10.62	38.77	337.90
21.25	61.57	331.00
-14.61	75.52	345.00
-35.76	-65.98	358.60
-44.95	-61.29	378.20
13.98	15.26	330.20
31.56	9.05	334.80
98.96	45.44	313.60
8.71	135.96	335.50
1.40	88.08	342.40
16.64	13.41	329.20
5.89	21.70	331.70
-15.68	83.78	347.90
-1.39	77.76	338.30
-6.91	69.23	337.40
-11.41	-15.69	334.20
-6.86	30.18	335.00
19.87	109.72	354.70
14.80	-3.72	328.30
44.26	-41.98	372.40
33.31	3.54	334.00
-23.43	8.17	336.30
-18.27	106.10	343.00
-32.09	76.74	350.60
3.21	45.95	336.20
-2.29	64.18	335.20
-20.18	107.23	343.60
-6.89	64.39	336.30
21.26	142.39	331.20
17.83	123.60	352.70
-29.31	93.39	351.80
9.63	131.48	335.80
19.91	36.10	338.90
-13.38	30.42	337.70
23.61	32.38	338.90
25.18	20.08	335.10
26.69	2.60	331.10
43.59	74.84	350.70
-10.93	92.33	347.80
-20.78	-18.65	338.10
97.06	47.07	313.00
12.23	-20.11	331.60
46.39	-33.89	373.20
33.38	40.44	344.20
14.25	50.61	336.60
23.99	138.84	331.40
1.37	30.17	334.90
-16.24	-26.19	339.70
-4.15	-50.10	337.70
25.58	35.34	340.50
-16.85	4.45	333.40
46.32	48.60	329.20
27.67	2.61	332.10
-29.25	89.33	351.00
30.59	9.04	334.20
18.66	126.56	350.20
69.06	-38.56	369.00
89.85	-52.28	333.90
-25.10	70.19	346.70
1.38	-30.50	335.90
22.93	-1.02	329.10
96.56	74.60	358.80
-32.29	47.25	352.80
-8.75	37.74	337.00
-10.84	117.12	345.00
0.46	140.43	335.20
-40.84	22.04	351.70
3.18	19.91	332.20
-17.63	82.11	348.90
38.24	45.91	329.30
-5.07	45.15	337.10
17.51	7.09	328.70
29.62	139.76	333.60
101.89	75.19	356.90
11.73	88.34	343.40
-17.21	-39.33	340.60
-15.51	112.10	344.10
30.78	59.85	326.60
-36.84	31.55	350.20
14.33	37.90	338.40
12.23	19.87	331.50
58.34	-25.58	371.40
57.14	-59.81	345.70
-3.18	20.84	332.50
-1.39	82.81	340.00
-27.78	-37.91	344.70
-42.99	-26.66	345.80
75.31	50.25	322.40
-15.24	37.87	338.10
42.27	64.62	332.70
93.39	-43.99	333.50
2.29	52.30	335.60
-24.44	90.24	350.80
-15.26	-46.52	338.60
63.98	-36.52	368.80
0.46	141.35	335.20
5.16	121.24	343.30
-5.97	-29.62	336.40
-32.90	-13.52	349.10
10.49	55.72	334.00
-25.14	76.02	347.30
16.60	127.42	347.30
-29.22	-64.52	350.70
61.11	72.63	363.70
-33.43	84.44	354.70
66.74	71.28	361.90
-13.49	43.75	340.60
29.51	141.95	332.30
67.11	-30.50	369.40
66.97	-34.48	368.60
-23.12	-60.71	345.40
-0.46	124.48	339.30
23.94	8.94	330.70
-11.96	-72.13	350.30
15.96	117.30	354.10
13.41	37.00	338.60
-11.64	-54.28	340.70
-0.46	77.73	338.20
11.52	35.92	337.20
-41.18	-34.31	346.50
77.06	-33.48	368.70
-9.97	110.35	347.50
-34.34	80.42	354.10
36.17	-34.88	372.90
23.63	93.71	353.00
-27.32	95.08	350.90
-13.44	55.65	339.20
72.67	-38.88	372.00
-40.61	-69.23	376.30
28.58	140.95	332.10
-7.81	-28.70	336.40
-37.89	48.95	351.10
12.36	-31.36	335.20
-34.14	76.08	352.00
50.29	-7.97	357.40
4.30	100.42	349.40
-11.57	38.86	338.70
17.45	-0.12	327.60
12.09	3.48	327.90
-8.77	66.53	337.80
-18.89	117.24	337.20
-21.55	103.64	350.60
48.15	-44.20	342.20
-7.95	118.98	342.20
-14.36	-50.31	339.10
12.23	18.97	331.70
-22.66	11.01	338.60
1.36	12.60	331.60
-9.85	78.95	343.50
65.89	50.45	323.70
2.29	32.98	335.50
28.17	-49.23	338.10
-29.11	115.74	349.40
5.03	72.32	334.60
-32.73	-69.71	357.60
-39.47	81.99	356.70
-34.08	50.91	351.40
-6.16	116.81	346.90
-4.23	86.63	344.10
16.81	101.05	351.60
-8.10	103.17	349.00
32.55	11.84	335.60
81.59	70.31	362.00
22.57	27.60	337.20
22.81	108.90	355.20
12.46	37.85	337.90
10.78	125.88	343.10
-26.85	-56.82	344.80
-8.06	99.70	346.90
-30.39	-16.07	342.30
-21.29	107.12	346.30
-35.88	-54.83	350.20
23.03	145.71	330.50
94.95	45.57	314.50
-21.83	136.85	340.00
-9.68	34.08	337.30
-1.38	48.74	336.40
14.03	-20.10	331.40
-8.89	119.05	342.40
81.77	49.89	320.10
-32.20	-21.66	341.60
-14.99	4.44	332.60
-5.08	124.15	338.40
33.52	-19.07	345.60
3.14	-5.51	328.00
1.43	106.78	348.30
83.10	-26.41	368.70
57.78	-52.06	338.40
-23.83	32.68	342.00
-2.38	104.90	348.40
11.19	-5.51	327.80
23.93	142.09	330.50
45.51	-42.42	350.70
5.92	64.77	333.50
17.85	-29.51	335.10
12.27	67.37	332.80
92.40	45.58	314.60
-11.54	63.76	337.80
6.77	17.10	330.60
-26.61	-25.41	341.70
1.40	87.02	341.90
-38.87	-27.37	342.80
17.57	91.35	347.70
30.42	39.31	342.60
-22.52	92.17	350.80
47.20	48.58	329.10
89.76	-23.27	367.10
15.90	-23.82	332.60
-1.36	10.76	330.70
44.47	-6.99	357.70
57.27	-37.75	371.00
12.29	64.69	333.10
6.88	48.67	335.90
76.93	51.03	321.80
49.54	-43.67	345.40
-15.31	54.79	339.60
16.47	-7.26	325.90
12.68	89.41	343.90
-14.75	94.40	348.40
50.62	74.34	352.90
23.73	-39.33	340.60
2.25	8.01	329.50
94.39	-44.52	330.60
51.61	47.60	328.50
95.44	69.59	358.30
14.11	146.94	333.30
-34.96	69.05	350.60
-12.34	21.89	334.70
1.37	63.80	333.20
-30.20	72.96	350.90
45.88	-76.67	377.40
18.13	83.84	340.40
16.80	19.92	332.40
-28.35	74.11	351.80
22.04	-2.83	329.20
29.03	71.06	337.30
-37.04	33.65	352.10
-9.05	102.13	348.70
-22.54	9.11	336.80
-11.74	149.64	343.70
13.73	-67.57	346.60
19.84	40.60	337.70
20.52	21.83	333.80
78.78	69.45	362.70
44.38	-33.91	373.40
15.25	-51.12	338.30
7.78	-29.50	335.00
-3.28	119.36	343.30
-37.06	-53.23	352.30
22.28	50.04	332.80
-8.83	-53.27	340.20
-27.35	90.35	351.20
-42.13	37.76	354.50
-4.21	-56.43	342.40
14.76	4.37	327.50
9.75	-51.36	339.90
-12.52	41.75	339.50
56.36	-28.66	371.70
16.71	123.40	349.40
-3.22	46.94	336.70
-3.29	89.54	344.40
-2.29	69.84	335.90
18.64	129.33	349.90
29.61	81.92	344.10
-24.09	-57.93	345.80
18.92	-49.20	337.90
-3.15	-3.73	329.30
-18.77	10.90	335.20
4.16	-49.25	338.20
-14.32	-27.93	338.20
-19.10	54.08	341.00
1.35	-5.52	328.50
40.65	9.47	350.10
6.98	-50.51	340.50
-14.30	122.93	337.60
18.63	92.84	349.70
-23.93	-50.02	343.50
3.21	147.17	335.90
55.94	-44.62	368.90
25.84	64.46	331.90
68.09	-53.09	339.10
7.83	132.87	337.00
-37.10	49.17	352.70
-25.27	3.56	336.30
-10.44	9.90	332.40
-36.12	43.36	352.60
6.10	121.35	343.60
-9.47	-0.12	330.20
-4.07	9.85	330.80
30.26	63.30	330.60
-34.30	-63.14	353.70
27.98	85.51	347.20
0.46	-33.26	335.90
-4.07	8.96	331.40
-6.06	-57.18	341.30
9.72	82.49	338.70
-42.45	-28.20	341.50
-11.37	-11.98	332.80
-23.42	20.15	336.20
91.55	72.55	358.40
-11.59	70.57	339.40
25.70	-4.64	330.10
-34.14	86.69	352.00
85.69	72.41	362.60
22.44	72.47	335.30
4.12	32.97	335.40
-25.12	-2.87	334.40
19.61	49.29	333.90
40.80	11.43	351.40
3.15	4.39	329.10
17.78	142.59	333.80
30.71	13.67	335.50
-9.83	-57.38	342.50
2.32	126.56	339.90
61.43	78.02	365.60
-37.12	42.43	352.90
25.86	49.94	332.10
24.23	20.06	334.70
-37.26	-36.09	345.30
17.80	50.25	334.20
38.60	60.41	324.80
-2.36	114.68	346.20
-25.43	89.41	351.30
-15.39	142.05	341.30
-24.79	31.78	342.40
16.83	70.15	333.00
-2.38	-66.94	348.30
11.46	-31.40	335.70
-37.64	-16.38	348.80
19.94	-35.48	339.50
47.68	53.52	326.20
-0.47	84.84	340.70
-3.21	68.98	336.20
-11.37	7.18	332.80
94.11	-24.11	364.50
27.02	68.80	335.30
20.47	-24.76	333.00
20.66	126.17	351.80
-25.22	103.95	348.40
-43.54	72.49	358.10
4.93	4.38	328.40
1.37	52.24	335.20
-27.81	-47.40	345.00
51.93	78.74	355.30
5.04	77.11	335.50
-38.90	-24.57	343.10
9.94	93.86	346.40
3.20	141.27	335.00
-11.73	118.46	343.40
-12.50	-34.50	339.00
70.60	53.55	321.00
3.14	-3.71	327.90
48.73	44.65	333.40
-42.66	-30.22	343.20
-22.87	31.72	341.70
-20.94	-30.00	340.70
14.12	-25.71	333.50
52.93	-76.43	376.20
-0.45	-4.62	328.30
-7.12	108.41	347.40
4.96	16.17	330.30
-2.28	136.81	333.10
13.40	80.51	338.20
-40.17	43.57	354.30
19.53	52.73	332.50
57.52	49.08	326.40
28.26	-52.18	339.20
-1.36	14.42	331.60
10.56	134.32	336.00
23.12	51.73	331.90
-22.11	106.53	344.40
88.16	-23.38	368.80
31.70	13.70	336.30
10.40	16.21	331.00
75.81	72.43	362.70
45.00	88.21	354.20
-22.03	139.98	343.10
-32.40	-30.27	343.70
-30.87	-70.91	358.70
-23.91	45.96	343.20
1.38	138.84	335.80
14.82	-12.73	328.70
26.69	146.92	331.20
74.36	51.97	322.10
15.04	139.80	333.70
-36.22	46.37	353.50
41.05	-4.97	353.50
-16.11	123.64	337.00
-31.68	-47.55	346.10
14.79	9.78	328.20
3.14	-1.92	328.00
-10.52	20.07	334.90
24.39	136.53	336.90
47.69	-74.21	375.40
31.46	-2.87	333.80
42.56	75.67	350.10
-33.09	86.47	351.10
-40.27	83.59	355.20
19.28	-1.92	328.20
88.80	50.29	317.10
24.66	92.98	353.90
-21.47	84.11	349.30
23.01	61.44	330.30
-9.66	-25.04	336.70
45.74	78.12	352.50
5.24	103.17	349.00
12.51	-54.06	339.30
84.66	-24.54	371.10
20.09	84.23	342.00
81.07	-33.47	368.60
-25.83	-39.70	343.80
5.22	113.27	347.70
-28.48	-26.35	341.80
-21.52	94.86	350.10
5.92	-41.21	333.20
-10.56	-24.08	336.20
-29.16	6.38	338.80
-40.30	81.69	355.40
-24.43	10.98	337.50
25.11	-20.27	334.20
18.65	-67.27	350.00
-18.82	-15.78	336.00
-29.73	-50.31	345.50
-4.14	39.58	336.90
56.38	-55.28	341.10
18.96	38.85	338.60
21.36	64.62	332.70
-10.64	124.30	338.80
-14.39	54.84	339.90
-5.90	17.18	332.30
-16.11	20.20	337.00
-2.26	10.75	330.50
58.64	76.29	366.90
-19.22	-53.72	343.10
43.99	54.26	325.30
-26.20	-65.11	348.70
8.62	-21.97	332.20
67.63	47.77	323.60
-19.64	95.00	350.60
82.65	71.36	362.30
76.03	73.65	363.80
18.65	21.78	333.00
31.87	19.34	338.10
-26.72	38.44	343.20
-6.18	106.69	348.00
4.93	1.68	327.80
-23.09	141.66	344.90
-9.50	8.05	331.20
1.35	9.83	330.00
95.21	51.82	321.20
2.28	-27.62	334.50
-10.60	-26.01	337.40
32.42	-2.87	334.30
8.68	53.05	334.50
26.05	67.72	334.50
63.18	-29.54	370.00
16.58	-5.51	328.00
-10.40	-1.03	330.90
-16.06	-16.69	335.90
-41.87	-21.83	344.40
-43.29	31.10	356.10
66.50	52.01	322.40
-9.87	-61.40	344.00
26.65	-2.84	330.70
-42.14	31.94	354.60
-6.04	76.28	340.00
19.15	-7.27	326.00
-3.24	145.48	338.40
-17.38	73.37	343.80
-36.82	51.69	350.10
-35.76	-64.01	358.60
-9.65	-23.17	336.40
-5.04	32.99	335.60
29.68	92.61	356.20
-15.46	115.46	342.90
22.89	112.23	356.50
19.75	-32.37	336.20
22.64	29.55	338.30
13.36	-36.17	337.30
16.60	7.08	328.40
45.20	50.16	327.60
-41.21	38.78	354.90
13.43	81.61	338.90
34.23	62.31	325.40
-12.51	69.60	339.20
15.18	47.86	336.70
-6.11	84.70	343.90
11.49	-38.85	336.50
-16.29	41.91	340.80
19.37	12.53	329.70
9.65	47.82	336.40
-3.23	-50.11	337.80
8.13	102.48	349.90
12.32	54.80	334.00
-10.81	78.15	344.10
0.46	-51.15	338.50
18.95	135.28	338.40
31.93	63.03	329.20
75.38	49.41	322.70
6.77	-19.15	330.60
98.91	51.01	316.20
8.68	143.85	334.60
34.57	88.75	356.40
19.23	-6.40	327.40
-3.17	12.58	331.00
72.99	74.58	363.50
-17.24	43.81	341.10
-23.14	142.94	345.70
6.95	84.52	339.40
9.66	43.27	336.90
-4.13	-36.93	335.80
-37.24	84.28	354.00
-14.37	41.73	339.40
8.04	-66.54	346.20
56.47	54.30	325.50
27.11	-33.75	360.80
22.29	138.60	333.00
-39.34	9.38	347.00
2.28	70.42	334.30
-15.16	22.00	336.40
73.48	52.85	322.10
1.42	91.80	345.80
-4.14	42.38	337.10
-26.28	5.43	337.50
-35.39	-39.88	345.40
-24.93	54.62	344.40
10.52	147.60	334.80
80.65	71.34	362.20
21.21	143.81	330.30
-33.30	-4.83	343.30
-25.52	21.29	339.70
-2.42	-72.83	353.70
-11.33	-0.12	331.80
-10.93	89.52	348.00
18.46	-13.67	329.60
0.46	79.52	337.90
22.10	-61.44	344.20
-0.47	121.44	341.20
-2.27	-17.44	332.60
-18.82	125.11	336.00
-21.00	-34.76	341.60
24.77	145.36	329.70
-23.39	76.48	349.40
32.74	81.73	347.30
3.16	-15.53	330.70
22.68	-50.26	338.80
-42.09	-17.20	346.20
5.82	-12.70	328.00
37.96	48.26	326.90
-7.68	4.41	330.80
-4.11	-21.19	334.20
10.56	-31.44	336.10
-37.37	-20.06	346.30
-23.45	90.14	350.40
-20.04	53.18	341.20
-29.85	55.97	346.90
-13.37	64.62	337.50
23.16	64.56	332.40
-28.94	116.95	347.30
-9.73	124.48	339.30
-24.08	-59.81	345.70
-23.80	30.77	341.60
-4.31	-70.19	350.20
18.63	140.25	332.60
-33.27	-28.32	343.00
49.71	-57.12	346.60
64.02	-40.58	369.00
21.44	69.45	334.00
17.78	72.13	333.70
-36.33	23.54	345.40
35.63	-30.34	367.40
68.91	76.45	362.90
4.04	5.28	328.50
-19.08	-37.47	340.70
-17.17	54.82	339.80
1.38	49.69	336.60
-6.96	-53.17	339.60
78.13	-29.46	369.00
-36.39	-35.21	346.00
-7.95	148.14	342.40
25.73	4.41	330.50
-34.48	-33.29	345.80
49.64	51.92	327.40
22.93	-5.53	329.10
2.30	48.81	336.90
86.47	71.24	361.70
-22.45	6.31	335.40
44.65	73.08	351.50
-5.96	-24.95	335.50
30.58	81.05	344.40
-13.29	-17.59	335.50
5.98	134.60	336.70
-26.26	132.03	337.20
24.15	21.81	333.50
24.34	26.60	336.20
-30.34	16.73	341.70
25.72	2.60	330.30
83.46	68.23	361.50
8.83	-50.48	340.30
-40.50	36.09	357.20
4.08	61.68	331.60
-23.46	87.29	350.50
98.42	-43.90	326.00
9.07	100.42	349.40
9.63	148.88	335.60
13.30	-29.56	335.70
62.64	49.79	325.20
-19.60	0.79	333.60
14.20	-29.54	335.40
18.89	42.39	337.20
-35.48	-39.04	346.30
-25.60	-19.74	340.80
-22.30	-3.77	333.20
-16.98	-15.77	335.90
29.15	52.97	328.30
-5.06	-29.64	336.60
-36.13	-22.72	343.50
102.19	42.78	313.00
-5.05	-34.20	336.10
31.86	-38.69	370.20
-22.68	-22.41	338.90
-5.18	87.76	344.80
19.10	83.99	341.00
-14.63	-65.46	345.50
2.29	-28.56	334.70
-40.48	-61.29	365.80
-33.13	-22.59	341.60
-25.70	137.70	342.10
-10.61	-29.73	337.60
-8.08	105.71	347.90
0.47	-63.60	345.70
11.18	-2.81	327.50
22.18	-14.65	331.40
-30.97	57.23	348.80
-19.08	58.70	340.70
-30.18	115.21	350.70
8.81	-48.48	339.30
38.13	-50.81	336.30
-33.19	-72.67	362.60
-30.53	14.95	343.80
9.41	-4.61	327.90
-6.16	-63.79	346.70
77.81	69.47	362.80
53.17	50.08	327.10
-10.60	63.68	337.40
-22.03	-39.63	343.20
-24.60	106.97	339.80
-36.13	41.44	352.70
5.97	33.02	335.90
62.02	72.53	363.20
-30.57	-15.22	344.30
6.29	-71.98	354.30
44.14	52.66	326.40
75.15	-29.48	369.20
14.97	21.72	332.10
96.30	51.93	321.90
-14.31	121.23	338.00
17.89	46.81	335.80
-14.12	-12.91	333.40
-9.70	125.04	338.30
-29.39	-25.39	341.50
45.79	-56.95	345.60
4.92	-1.01	327.10
18.62	139.30	332.50
5.22	115.99	347.30
-7.12	112.25	347.50
-6.00	125.82	337.90
-8.83	75.40	340.20
38.48	-55.93	339.40
23.21	47.36	333.20
86.32	67.16	361.10
28.96	138.21	336.50
-3.25	77.17	339.80
2.39	103.23	349.20
-13.47	39.01	340.00
49.58	-60.76	345.70
-11.51	-23.20	336.90
2.29	30.18	335.00
60.50	53.93	323.30
59.37	47.35	326.80
-29.60	-13.32	344.00
-22.87	-30.08	341.60
70.37	50.50	324.00
-24.58	58.49	339.50
-16.97	17.36	335.70
25.82	8.06	331.60
12.02	104.06	352.00
-21.37	77.04	347.60
0.45	-2.82	329.00
-4.95	-3.73	329.30
30.29	86.69	352.00
34.85	73.53	340.20
-5.04	33.92	335.70
63.70	48.14	326.10
32.09	-28.85	361.40
21.89	112.10	356.10
86.44	44.35	324.50
0.45	9.82	329.80
-1.41	-59.50	343.90
21.46	151.00	334.20
-21.01	56.08	341.80
3.20	-26.69	334.30
5.98	40.48	336.70
14.17	139.26	334.60
3.21	-31.43	336.00
-37.00	-65.45	361.10
-25.06	-1.03	333.50
88.22	43.03	321.30
4.12	51.37	335.50
-16.01	13.64	334.80
-8.78	40.65	338.10
-3.27	79.54	342.00
-12.82	91.30	347.50
34.01	-38.83	371.60
-38.20	-32.29	345.20
-38.17	39.62	353.70
98.48	44.75	314.80
63.01	-40.58	369.00
-24.80	41.18	342.50
70.01	76.58	363.50
88.25	72.07	360.90
20.55	48.44	334.30
50.44	-6.02	358.50
-28.28	-18.73	339.40
86.77	50.62	319.20
-34.81	55.36	349.10
69.57	73.12	361.20
-29.82	58.75	346.50
-19.46	80.80	347.40
65.93	-35.47	368.40
4.05	-14.58	329.70
-27.08	-0.12	336.00
18.49	14.36	330.20
87.34	-24.44	369.60
1.37	-22.94	333.10
6.87	138.64	335.30
72.24	-37.63	369.80
-1.38	69.82	335.80
4.12	141.35	335.20
14.36	83.49	339.00
-40.09	47.36	353.60
0.45	8.01	329.70
80.15	-28.45	369.00
43.85	-57.83	345.20
5.94	76.93	334.70
7.83	81.20	337.20
15.70	9.78	328.40
16.79	-21.06	332.20
2.29	139.64	335.50
-33.17	-1.06	342.00
-2.29	55.85	334.80
-13.68	-63.53	345.30
26.67	62.45	330.90
95.01	-53.02	332.80
-42.25	-34.41	347.50
32.92	-39.77	370.80
-2.30	131.75	336.50
25.81	83.66	343.50
8.64	-23.83	332.70
3.31	-65.55	346.00
82.48	45.01	322.90
2.27	20.84	332.60
14.57	90.41	344.10
-19.24	-55.68	343.60
57.70	-45.43	367.30
15.13	-29.56	335.70
33.29	-0.12	333.80
16.33	85.98	341.50
24.44	130.62	350.80
21.02	-75.22	375.30
-33.19	74.17	352.10
-0.46	-25.85	335.30
13.08	17.07	330.20
-26.10	-1.96	335.20
-28.37	87.66	352.00
-10.92	107.52	347.60
66.03	48.78	324.40
23.51	129.81	351.20
62.10	73.63	363.70
-30.59	-37.89	344.50
20.40	-18.31	331.80
11.74	-75.90	373.60
40.05	0.82	344.90
31.27	46.26	331.80
-13.02	-74.62	353.00
18.18	84.99	341.30
-23.90	150.54	357.00
-5.89	9.88	331.70
3.21	-39.62	335.20
20.54	91.85	349.60
-23.89	-35.83	342.90
-39.05	-36.93	344.40
31.14	-56.06	340.20
-32.03	43.04	350.00
-38.14	45.39	353.40
-17.48	105.10	345.90
21.26	145.07	331.10
14.79	8.87	328.10
4.25	-63.60	345.70
16.61	4.38	328.60
-21.64	14.66	337.00
22.64	126.46	352.60
5.09	-49.32	338.70
22.10	144.63	330.10
24.70	128.15	354.60
14.50	-60.20	342.50
-11.81	82.35	345.90
59.86	45.03	329.50
24.54	-50.29	339.00
52.76	-75.16	375.00
10.42	-20.13	331.80
-20.02	-31.89	340.90
-29.74	-51.27	345.60
2.27	14.44	332.00
-35.21	-25.56	343.70
18.63	146.63	332.60
-13.17	-11.96	332.40
92.87	49.28	316.20
-15.94	-74.75	353.60
-36.19	48.27	353.20
-0.46	73.79	337.10
-2.38	103.14	348.90
6.89	-32.39	336.40
-29.13	5.44	338.50
32.29	-6.51	332.90
47.68	76.21	352.60
-0.47	83.89	340.60
-23.55	117.55	338.10
0.46	-50.13	337.90
49.80	-80.47	375.80
4.23	90.43	344.20
-7.13	94.27	347.90
28.15	41.54	337.80
10.57	49.65	336.30
-23.94	-38.74	343.70
15.73	-12.74	328.90
-30.81	-49.58	347.00
15.06	148.17	334.00
86.44	44.78	321.20
-3.15	1.69	329.40
58.11	-31.56	369.90
82.57	49.84	319.80
-23.37	-13.91	335.40
-32.50	-67.28	355.10
14.78	7.07	327.80
93.75	67.81	359.30
-1.38	-36.03	336.00
42.53	-32.00	375.10
-1.43	103.98	348.50
8.15	106.65	351.00
3.25	84.75	340.30
63.27	44.90	328.50
15.16	134.44	336.30
-32.15	-18.82	341.10
84.34	46.35	319.90
-15.74	-68.05	349.10
-0.45	15.35	332.10
62.13	-37.63	369.80
34.55	89.68	356.20
71.92	-31.41	368.20
6.17	115.96	347.20
27.87	67.72	334.50
31.43	-20.83	343.40
-4.21	82.45	342.40
54.16	-51.21	338.90
-13.40	-27.93	338.20
-17.67	91.88	349.70
-4.21	120.82	342.10
-10.63	-32.58	338.40
-9.65	-39.78	336.50
-14.33	31.41	338.40
5.00	-23.83	332.70
51.83	-79.42	375.70
24.83	-60.29	343.00
15.25	81.44	338.20
31.08	-29.83	361.20
25.41	76.81	338.20
11.57	81.56	338.70
-0.46	50.55	336.20
2.27	27.23	332.70
21.12	-3.72	328.90
30.24	30.68	340.60
-21.28	74.81	346.10
44.02	-52.18	339.20
29.25	76.26	339.90
42.89	-25.02	378.30
-41.27	80.71	355.40
-17.15	38.00	339.30
-32.87	58.17	348.70
12.34	145.68	334.60
-36.34	78.61	354.70
-39.57	-65.46	366.70
-40.48	78.14	357.00
85.45	53.73	327.50
-17.93	135.44	336.50
77.85	67.52	363.00
16.85	140.59	333.40
18.40	-4.62	328.50
-26.47	-15.03	340.00
-18.98	-45.63	338.90
25.49	-53.13	339.30
14.94	113.93	352.70
21.39	138.68	333.20
-20.96	30.72	341.00
-30.97	54.36	348.80
-32.16	90.40	351.40
11.04	104.84	351.40
64.37	-54.01	339.00
21.91	-36.59	341.20
32.62	93.64	356.40
-29.33	86.69	352.00
1.37	-40.49	334.80
32.80	17.49	338.20
-23.45	-72.13	350.30
83.60	48.18	320.40
22.34	-22.07	333.70
-20.92	138.84	340.30
9.90	-65.36	345.00
-21.39	78.06	347.90
59.54	-49.20	337.90
29.65	91.53	355.80
88.03	-51.37	333.90
-25.84	116.74	343.90
-25.57	22.27	340.40
-35.03	72.08	351.30
-22.42	-12.05	334.90
0.46	47.82	336.40
32.93	21.28	339.50
13.41	-47.42	338.40
-20.99	-33.82	341.50
-35.21	102.45	353.10
-20.73	22.06	337.30
7.93	125.25	341.40
-23.21	69.26	346.80
-17.26	46.66	341.40
-18.17	43.80	341.00
13.13	-21.01	331.40
-23.41	77.52	349.80
4.04	3.48	328.50
1.38	-36.06	336.20
15.87	63.55	331.90
2.28	143.50	333.80
-16.35	-54.49	342.00
25.40	-48.31	338.10
21.78	-39.18	339.30
24.08	149.37	332.60
-20.94	35.36	340.70
-32.02	4.53	339.70
41.78	46.75	328.90
-33.10	-20.70	341.30
88.03	43.82	320.60
6.93	82.37	338.20
-23.33	104.93	348.50
-25.40	94.12	350.90
-28.47	-27.28	341.70
-27.89	40.66	346.10
22.09	-62.36	344.10
42.39	44.69	333.70
26.27	72.00	337.40
-21.50	100.50	349.70
14.91	114.67	352.00
12.04	106.14	352.50
-2.26	8.03	330.60
-4.97	1.69	330.90
-10.33	-5.53	328.80
70.05	52.03	322.50
10.44	64.52	332.20
-11.52	34.99	337.20
-3.26	122.41	341.30
-4.14	35.84	336.50
1.44	-71.41	351.50
15.80	-15.51	330.40
0.45	18.05	331.50
-41.12	-47.68	354.10
-9.67	40.54	337.20
-20.82	-20.54	338.70
13.21	140.63	333.50
89.16	44.39	318.40
103.60	41.98	320.00
-17.15	-25.23	339.30
-21.94	57.95	341.80
-32.82	109.62	348.20
11.86	-68.66	347.30
45.01	-81.09	378.70
-27.78	59.39	344.70
-13.08	-4.64	330.20
15.85	-77.05	374.20
-18.63	103.38	349.70
17.07	30.42	337.70
5.21	-65.69	346.70
30.32	48.00	331.30
45.74	54.23	325.10
8.76	39.64	337.40
58.89	68.38	362.30
-26.33	82.48	350.50
22.05	6.20	329.40
23.00	10.74	330.20
-30.82	-55.30	347.10
49.64	49.23	327.40
27.81	145.29	333.70
49.84	48.53	328.70
18.98	-77.34	375.60
-27.81	-50.25	345.10
-17.59	80.96	348.10
-25.82	121.39	343.70
63.29	52.27	324.00
3.20	-27.62	334.50
9.12	111.52	351.20
-27.36	-23.38	339.50
3.25	126.45	339.60
-5.86	0.78	329.80
-20.39	75.97	347.10
-12.29	13.58	333.20
14.10	140.42	333.00
-33.20	93.50	352.20
-4.08	18.08	332.10
56.89	-26.87	375.20
21.36	51.85	332.70
-0.47	88.31	343.30
2.29	-30.50	335.90
-0.47	99.87	347.50
-7.11	91.14	346.90
-22.64	114.81	338.20
13.98	106.26	352.90
13.20	71.08	333.10
-3.29	88.42	343.70
90.39	74.19	361.60
-20.05	36.36	341.30
-2.33	121.47	341.30
-25.46	90.45	351.60
25.90	-61.53	344.70
-25.01	49.11	345.50
-13.35	58.08	337.10
4.18	-54.23	340.40
50.11	-44.28	342.80
40.44	-54.22	340.30
90.64	-45.35	330.10
6.87	77.99	335.30
-1.35	0.78	329.30
73.96	-55.18	340.50
-2.28	-22.06	333.60
-16.95	-12.99	335.30
11.23	5.29	328.70
30.03	21.20	338.20
-12.26	133.83	332.50
5.03	144.02	335.00
74.54	49.44	322.90
16.96	76.19	335.50
-25.76	40.27	342.80
103.90	42.27	315.60
65.10	49.64	324.20
-1.37	54.09	335.30
-43.05	69.74	354.10
-4.17	124.30	338.80
14.30	-38.98	337.60
-14.27	-20.44	337.00
-21.24	-59.78	345.50
-37.24	2.71	345.10
9.66	80.18	336.80
10.55	31.18	335.90
24.09	65.53	332.70
20.46	-22.02	332.90
30.66	97.52	356.30
-28.14	69.74	349.20
-7.86	39.74	338.30
10.51	53.97	334.50
18.94	29.54	338.20
100.53	-38.45	333.00
-26.71	-33.96	343.00
2.32	-52.15	339.00
-31.86	-51.64	348.10
-3.21	-28.66	335.90
-6.83	28.19	333.20
-5.81	-6.39	327.00
3.26	-55.21	340.70
-4.95	4.39	329.40
43.29	51.81	326.70
60.56	45.78	328.40
15.25	-49.28	338.40
25.21	69.76	335.50
-25.09	142.36	346.60
-8.07	107.49	347.50
-15.32	-31.79	339.80
-21.62	-15.81	336.70
68.30	45.56	326.80
-9.85	-58.47	343.40
-11.57	-37.27	338.90
-35.99	4.57	342.20
13.94	12.52	329.30
79.35	-54.12	339.70
41.64	1.79	350.40
-4.28	106.72	348.10
12.29	56.51	333.30
-14.36	120.65	339.00
-14.33	-26.08	338.30
27.62	3.51	331.50
55.01	48.33	327.40
90.80	70.77	359.30
-2.28	136.35	334.20
-4.12	33.90	335.50
-20.75	116.42	337.50
17.06	29.48	337.60
-25.50	91.57	352.20
-17.13	63.96	338.90
-17.96	119.05	337.10
4.12	138.68	335.40
-34.95	52.70	350.50
15.90	112.00	352.70
97.07	-18.11	364.40
-6.19	-67.92	348.40
19.82	44.28	337.50
14.20	138.68	335.40
-2.26	-14.62	330.70
-21.54	102.63	350.40
-23.50	124.67	337.30
24.76	2.59	329.50
-1.38	52.32	335.70
-1.39	-52.04	338.30
-5.96	30.22	335.50
-19.38	74.81	346.10
-30.20	89.31	350.90
-18.63	89.96	349.70
4.10	68.45	333.60
-17.81	8.12	334.30
-21.02	57.97	341.90
-28.46	-69.80	353.10
8.74	-39.81	336.80
-10.62	55.46	338.00
-2.29	64.99	334.60
-0.45	-6.38	326.50
30.56	7.20	333.90
-2.30	-30.55	336.50
-4.06	1.69	330.30
-7.70	136.20	331.60
60.59	-27.71	372.70
20.79	79.59	338.20
55.26	-32.68	371.10
-14.37	57.55	339.40
24.82	4.41	330.30
-22.05	-48.14	343.50
-1.36	16.23	331.50
62.17	-31.57	370.00
-16.19	37.92	338.60
-16.17	-27.94	338.30
-7.96	82.57	342.90
70.77	-50.23	338.60
-23.79	-26.33	341.50
-38.12	40.53	353.20
-5.97	32.14	336.30
-31.55	-38.86	344.70
1.37	144.38	333.70
-0.46	-34.26	336.70
-20.73	120.94	337.20
96.96	-22.08	364.00
-13.64	147.07	344.30
-13.42	-50.25	338.70
-11.86	-66.77	347.40
4.97	-15.53	330.70
67.39	44.65	326.70
-7.69	7.14	331.00
2.24	0.78	328.60
69.89	-32.42	368.10
-22.63	134.23	338.10
-37.45	77.92	356.00
24.75	-6.44	329.40
-10.76	119.05	342.40
6.88	34.85	335.80
47.23	47.71	329.30
4.14	47.86	336.70
28.41	77.42	340.90
19.87	-40.90	338.20
-35.19	86.92	352.90
24.98	49.09	332.50
-14.14	16.36	334.00
-17.68	90.97	349.90
-35.85	90.01	349.90
24.17	-21.17	333.90
13.22	54.77	333.80
-27.08	53.25	347.80
-13.67	-62.55	345.10
21.68	27.63	337.60
12.42	34.94	336.70
15.26	36.06	338.50
-0.46	-24.89	334.80
-4.18	146.08	339.80
14.86	-14.58	329.70
97.01	-43.57	330.30
-9.87	117.75	344.10
4.93	3.48	328.30
8.64	64.66	332.90
-27.88	112.68	345.90
45.72	-79.50	376.10
33.39	13.64	334.80
3.21	-46.12	335.70
-8.06	93.12	347.20
-24.99	-58.78	345.20
67.44	51.18	322.70
50.98	-77.63	377.00
56.59	52.63	326.20
66.76	72.29	362.00
-23.56	109.25	338.20
77.35	-28.53	370.10
24.67	37.24	340.80
12.62	-59.21	342.20
-18.98	29.59	338.80
-2.25	-2.82	329.00
19.17	86.18	342.30
35.33	79.25	344.80
93.81	-43.27	335.00
-36.36	82.55	354.90
66.01	-31.47	368.90
2.29	-37.82	335.50
5.07	-47.28	337.40
-11.48	-21.31	336.20
-24.40	85.29	350.20
85.50	67.29	361.80
71.52	47.12	325.20
14.91	105.05	352.10
-22.51	93.08	350.60
-33.37	-45.39	344.10
-16.95	12.75	335.40
-28.33	-64.67	351.50
4.10	67.53	333.60
48.50	-27.79	373.70
-16.33	71.03	341.60
2.28	64.77	333.50
-12.36	19.16	335.10
-35.43	-0.13	345.80
33.93	27.86	340.30
100.88	-26.31	367.40
-15.25	36.95	338.20
-9.50	6.23	331.10
22.06	-77.34	375.60
-15.74	101.32	349.20
7.82	41.39	336.60
-26.34	-12.18	338.30
21.08	-60.29	343.00
25.73	-39.54	342.40
-10.62	52.66	337.90
34.57	94.62	356.40
-23.37	101.29	349.10
-37.21	-31.31	344.80
-11.52	56.28	337.40
-20.24	143.38	344.50
9.86	123.23	343.60
14.06	63.59	332.10
24.53	-41.91	338.80
-22.25	-63.77	346.60
-13.63	116.81	344.10
27.86	14.54	334.30
-27.11	66.67	348.20
-20.47	-1.03	333.00
48.91	-53.39	341.00
-14.62	146.56	345.30
-10.43	130.03	332.10
46.80	75.37	353.20
7.74	62.89	333.20
-29.33	23.23	340.80
25.48	40.77	339.10
15.17	-41.62	336.50
24.93	109.70	357.80
64.00	-32.49	368.90
88.71	-27.28	366.90
-14.85	-5.54	329.50
9.61	73.30	334.90
-43.77	74.85	360.00
95.10	67.09	360.70
-33.51	19.76	345.50
16.29	-56.15	340.70
-5.92	28.22	333.60
5.04	145.11	335.40
5.98	42.34	336.80
-25.64	34.48	341.30
-22.44	8.15	335.20
44.76	-56.84	344.90
-27.40	16.65	340.00
-13.59	145.62	343.10
-30.93	2.66	337.90
-23.92	-36.82	343.30
-33.88	-60.44	349.30
-6.92	45.25	337.90
-31.34	13.95	342.40
-23.41	86.13	349.70
13.37	41.49	337.40
5.86	13.44	329.80
58.94	52.34	324.40
43.79	77.11	352.30
-24.82	-75.30	356.20
20.74	43.34	337.40
-9.87	-60.48	344.10
-17.88	22.87	335.60
12.89	-7.25	325.50
13.93	103.97	351.70
-19.39	-65.59	346.20
59.25	-41.79	370.70
24.53	136.37	338.80
-27.87	-56.99	345.80
-3.21	67.04	335.70
18.89	78.45	337.30
6.92	38.77	337.90
-31.21	84.64	351.50
24.84	106.40	356.60
-9.03	106.63	347.80
-27.22	144.55	349.60
-33.20	75.16	352.20
-8.76	-38.07	337.70
-3.35	-70.15	350.00
53.46	-53.28	340.30
48.86	-78.56	376.50
-18.35	105.62	344.50
-33.48	-32.29	345.20
-3.33	100.10	348.30
-13.01	-5.52	328.40
-15.31	57.60	339.70
-38.79	51.76	350.60
-19.47	-68.71	347.60
23.93	147.52	330.50
59.14	-44.75	370.00
61.34	75.91	365.10
6.91	35.91	337.10
-12.77	81.45	346.10
-21.96	34.56	342.00
18.44	5.29	329.20
-18.62	-74.86	349.60
97.33	-40.99	331.40
17.96	-75.30	375.70
-21.71	10.07	338.20
42.92	-42.71	345.30
37.04	85.75	352.10
8.88	124.61	342.20
51.61	74.39	353.10
-14.74	-68.81	348.10
-32.47	17.81	344.50
5.19	118.10	345.10
-21.02	38.29	341.90
95.86	-27.04	363.60
43.57	62.06	328.80
1.42	113.93	346.80
17.02	28.49	336.80
99.58	-44.02	326.90
-31.20	73.06	351.40
-13.46	52.96	339.80
4.96	-20.04	330.40
50.62	-58.02	346.30
4.07	-17.36	331.00
49.60	50.98	327.10
20.52	20.92	333.80
16.85	147.90	333.40
21.12	85.57	343.60
96.47	72.58	358.50
-30.55	-35.02	344.10
85.68	-31.30	366.80
-28.31	88.42	351.20
-1.37	137.06	333.70
26.70	150.60	331.30
29.90	17.41	336.70
88.35	-52.47	335.10
96.51	-51.03	331.70
93.23	45.57	314.50
24.97	14.45	332.30
6.01	82.47	338.60
27.66	92.38	355.30
23.82	-58.22	341.90
-9.70	47.12	338.00
22.91	3.49	328.80
-17.95	20.20	337.00
-4.28	103.98	348.50
-37.60	18.97	348.40
-16.00	132.84	334.60
-10.77	146.43	342.80
-33.16	43.26	351.80
92.34	46.41	314.40
-16.27	35.31	340.20
-22.89	107.63	341.90
22.03	114.76	358.30
-32.14	75.91	351.20
2.29	35.74	335.50
-32.09	12.01	340.50
6.76	-15.50	330.10
58.16	-29.56	370.20
89.13	-51.47	334.60
-8.98	117.42	345.90
-28.16	121.48	349.40
98.98	44.11	316.40
19.50	-21.04	331.90
61.50	-50.22	338.50
-1.41	-60.53	344.40
41.28	-5.97	355.50
45.69	79.96	352.10
-5.82	-5.51	327.90
2.32	-54.22	340.30
-19.08	34.42	340.70
0.46	-52.09	338.60
-24.75	39.23	341.90
18.43	6.19	329.10
90.91	43.97	315.40
6.90	40.47	336.60
-5.01	-16.58	333.60
-17.63	-1.03	330.90
5.95	141.18	334.80
-24.00	65.96	344.50
-1.37	-22.98	333.60
-10.76	120.06	342.60
-20.05	38.23	341.30
45.29	-39.95	372.50
-22.43	100.42	349.40
14.99	64.60	332.60
30.04	-30.76	360.50
11.23	3.48	328.70
49.78	73.56	353.80
-18.78	9.07	335.30
-0.45	-40.23	332.60
1.37	-38.68	335.00
-13.33	29.40	336.60
-22.40	1.71	334.70
-18.70	7.20	333.90
6.22	110.24	350.20
-25.87	-50.13	344.30
27.69	48.15	332.30
-21.48	4.46	334.50
-22.62	17.47	337.90
-44.74	74.83	359.90
15.82	17.11	330.80
-24.13	71.05	346.30
-32.17	75.01	351.50
67.21	-53.13	339.30
-2.30	38.61	336.50
-20.48	-68.91	348.60
-28.77	59.49	345.30
-38.41	-19.15	347.10
-1.41	118.49	343.50
64.43	-52.20	339.30
4.08	21.70	331.70
-15.04	7.19	333.60
5.96	48.64	335.70
0.46	135.32	336.20
-17.04	138.50	337.20
2.27	-20.13	331.90
75.40	47.65	322.80
-20.46	79.12	348.40
33.33	33.79	343.70
-3.21	-46.12	335.70
12.41	133.64	336.60
-14.64	80.38	345.60
15.25	-37.22	338.40
-38.43	0.83	347.30
-20.01	-28.13	340.70
9.56	-25.70	333.30
20.64	126.96	351.30
-30.76	-50.44	346.40
-13.25	15.46	334.40
64.35	49.75	324.90
26.82	-61.49	344.50
-24.51	108.45	338.60
14.25	133.56	336.40
4.94	8.89	328.70
-13.43	56.53	338.90
-37.22	75.52	353.90
91.24	-27.14	365.00
-10.62	-30.69	338.00
61.22	-29.57	370.40
-44.33	71.21	356.60
55.12	-44.36	350.90
88.47	66.30	361.80
-41.67	-51.28	358.90
-13.34	-20.42	336.70
-16.67	90.66	348.70
-10.69	72.60	340.20
-5.99	70.11	337.20
-36.93	53.76	351.10
-1.38	69.00	336.30
4.30	109.07	349.50
-29.30	91.41	351.60
11.22	7.08	328.50
28.17	-50.16	338.10
-34.10	13.94	342.00
1.39	81.54	338.60
51.84	-5.08	361.40
-25.79	117.45	343.20
24.61	91.83	353.20
-11.79	-63.49	345.10
27.06	19.20	335.70
-21.67	115.50	337.50
-14.74	93.37	348.10
17.79	51.14	334.00
15.14	-30.49	335.80
16.21	-53.09	339.10
22.26	51.82	332.50
13.29	-31.37	335.40
-41.80	-3.89	343.80
97.07	-20.11	364.40
-28.91	-59.07	346.90
-31.00	79.28	349.10
14.20	135.92	335.40
32.80	16.56	338.20
-11.41	12.69	334.00
-14.38	-34.55	339.50
-28.41	-16.01	341.00
11.40	145.38	333.90
-12.51	-33.59	339.20
-15.68	85.66	347.80
88.32	70.15	361.20
14.88	100.96	351.30
-12.69	147.89	344.00
69.27	48.57	323.00
-1.42	113.73	346.20
-9.93	-65.57	346.10
102.29	46.72	310.70
3.19	66.62	333.60
99.14	72.37	357.50
22.36	67.62	334.00
-28.22	6.38	338.70
34.50	-23.52	355.70
-19.65	-13.88	334.60
0.46	-34.22	336.30
96.44	50.21	316.60
-41.30	-17.27	347.50
8.72	33.04	336.10
5.26	108.23	349.90
6.77	-16.41	330.30
-5.06	141.90	336.50
