# This PCD file was generated using the MATLAB® pcwrite function
# from Computer Vision System Toolbox®.
# .PCD v.7 - Point Cloud Data file format
VERSION .7
FIELDS x y z
SIZE 8 8 8
TYPE F F F
COUNT 1 1 1
WIDTH 879
HEIGHT 1
VIEWPOINT 0 0 0 1 0 0 0
POINTS 879
DATA ascii
0.104361723925961 0.696600538250303 3.638000000000000
0.104648589577215 0.708512971174558 3.648000000000000
0.104820708967967 0.719692375152787 3.654000000000000
0.105050201488969 0.731304067571789 3.662000000000000
0.105193634314596 0.742352285371321 3.667000000000000
0.105652619356601 0.755684909807447 3.683000000000000
0.105968171572980 0.768065620495168 3.694000000000000
0.106168977528857 0.779663971761043 3.701000000000000
0.105939485007855 0.788099636598828 3.693000000000000
0.106197664093983 0.800165903871346 3.702000000000000
0.106427156614985 0.812062616817307 3.710000000000000
0.106714022266239 0.824446429843842 3.720000000000000
0.106857455091865 0.835763224678393 3.725000000000000
0.107000887917492 0.847107425332844 3.730000000000000
0.107144320743119 0.858479031807194 3.735000000000000
0.107345126698996 0.870343219526099 3.742000000000000
0.107402499829247 0.881069133921280 3.744000000000000
0.107431186394372 0.891567941768114 3.745000000000000
0.107775425175876 0.956202967502179 3.757000000000000
0.108406529608633 0.972158898943780 3.779000000000000
0.108004917696879 0.989193940025104 3.765000000000000
0.106714022266239 1.007955799893665 3.720000000000000
0.109209753432143 1.041962355365785 3.807000000000000
0.109209753432143 1.052395751001683 3.807000000000000
0.109754798169524 1.068133521154552 3.826000000000000
0.109008947476265 1.081703326518419 3.800000000000000
0.109295813127519 1.094991531601651 3.810000000000000
0.109410559388020 1.106593708719984 3.814000000000000
0.109582678778772 1.118803571526449 3.820000000000000
0.109697425039273 1.130455079120602 3.824000000000000
0.109668738474148 1.140636702970243 3.823000000000000
0.109840857864900 1.152920561490438 3.829000000000000
0.109840857864900 1.163414249930115 3.829000000000000
0.109582678778772 1.171148687535285 3.820000000000000
0.109697425039273 1.182855006769237 3.824000000000000
0.109640051909023 1.192710863118892 3.822000000000000
0.109869544430025 1.205703808860850 3.830000000000000
0.110644081688409 1.224773973240957 3.857000000000000
0.110930947339663 1.238547261336417 3.867000000000000
0.110443275732532 1.317512318916045 3.850000000000000
0.110730141383785 1.331513075316674 3.860000000000000
0.111045693600164 1.345916335513010 3.871000000000000
0.110873574209412 1.386199580142839 3.865000000000000
0.110414589167407 1.391009608480457 3.849000000000000
0.110558021993033 1.403378786799165 3.854000000000000
0.110816201079161 1.417242875857117 3.863000000000000
0.111303872686292 1.434113229885498 3.880000000000000
0.111705484598047 1.449959691520091 3.894000000000000
0.118730960999932 -0.622766639443552 3.779000000000000
0.118511030667304 -0.611275587443750 3.772000000000000
0.118636705143091 -0.601575374226471 3.776000000000000
0.118511030667304 -0.590600636911255 3.772000000000000
0.118416774810464 -0.579801658600220 3.769000000000000
0.117788402431528 -0.566450529754499 3.749000000000000
0.117631309336794 -0.555434321952610 3.744000000000000
0.117285704528379 -0.543571844356868 3.733000000000000
0.117411379004166 -0.533912739869439 3.737000000000000
0.117379960385220 -0.523531053534529 3.736000000000000
0.117505634861007 -0.513841802645210 3.740000000000000
0.117411379004166 -0.503188075179645 3.737000000000000
0.117348541766273 -0.492682700898363 3.735000000000000
0.117254285909432 -0.482059119834688 3.732000000000000
0.117348541766273 -0.472210553433127 3.735000000000000
0.117348541766273 -0.461974479700509 3.735000000000000
0.117379960385220 -0.451859353332274 3.736000000000000
0.117348541766273 -0.441502332235274 3.735000000000000
0.117254285909432 -0.430919859901449 3.732000000000000
0.117034355576805 -0.419902928585915 3.725000000000000
0.116971518338911 -0.378864730354138 3.723000000000000
0.117505634861007 -0.370344929649260 3.740000000000000
0.117882658288368 -0.361250538524361 3.752000000000000
0.118134007239943 -0.351716207253772 3.760000000000000
0.118385356191517 -0.342138026671344 3.768000000000000
0.118542449286251 -0.332251815635568 3.773000000000000
0.118479612048357 -0.321740960190306 3.771000000000000
0.118542449286251 -0.311571383939093 3.773000000000000
0.118699542380985 -0.301630361263518 3.778000000000000
0.119170821665187 -0.292432913293467 3.793000000000000
0.119642100949389 -0.283153247863716 3.808000000000000
0.121213031896728 -0.191712633534858 3.858000000000000
0.117065774195752 -0.134096216352505 3.726000000000000
0.116374564578922 -0.123153335562340 3.704000000000000
0.115651936343146 -0.112300532221023 3.681000000000000
0.114866470869476 -0.041400853965348 3.656000000000000
0.115180657058944 -0.031467121237866 3.666000000000000
0.114992145345263 -0.021385090137742 3.660000000000000
0.114552284680008 -0.011311127310996 3.646000000000000
0.114395191585274 -0.001317156591374 3.641000000000000
0.114112424014753 0.008639893007679 3.632000000000000
0.113892493682126 0.018557850945227 3.625000000000000
0.113955330920019 0.028508180637240 3.627000000000000
0.114049586776860 0.038480073228351 3.630000000000000
0.113892493682126 0.048361680086383 3.625000000000000
0.113703981968445 0.058199799389398 3.619000000000000
0.113578307492658 0.068042676342748 3.615000000000000
0.113609726111604 0.077971443135664 3.616000000000000
0.113515470254764 0.087808477168211 3.613000000000000
0.113578307492658 0.097764288024205 3.615000000000000
0.113515470254764 0.107611922627889 3.613000000000000
0.113484051635817 0.117481120130671 3.612000000000000
0.113452633016870 0.127344836469473 3.611000000000000
0.113484051635817 0.137279084426369 3.612000000000000
0.113735400587392 0.147504042358435 3.620000000000000
0.113829656444232 0.157555411827256 3.623000000000000
0.113986749538966 0.167715681062030 3.628000000000000
0.113892493682126 0.177511606364728 3.625000000000000
0.114049586776860 0.187704762583382 3.630000000000000
0.114049586776860 0.197653075207051 3.630000000000000
0.113955330920019 0.207429816435818 3.627000000000000
0.113735400587392 0.216950389984817 3.620000000000000
0.113107028208456 0.225617864209644 3.600000000000000
0.114332354347381 0.277926947046475 3.639000000000000
0.114897889488423 0.289323997084021 3.657000000000000
0.115306331534731 0.300410429558821 3.670000000000000
0.115526261867359 0.311060539456159 3.677000000000000
0.115714773581040 0.321661680634499 3.683000000000000
0.115589099105252 0.331394934308250 3.679000000000000
0.115463424629465 0.341106263326080 3.675000000000000
0.115432006010518 0.351082343526471 3.674000000000000
0.115526261867359 0.361446139342151 3.677000000000000
0.115746192199986 0.372230537756998 3.684000000000000
0.115903285294720 0.382845743602111 3.689000000000000
0.115903285294720 0.392955750563190 3.689000000000000
0.115840448056827 0.402847234478714 3.687000000000000
0.115746192199986 0.412615753961511 3.684000000000000
0.115809029437880 0.422941543386153 3.686000000000000
0.115840448056827 0.433160811870009 3.687000000000000
0.115809029437880 0.443145113816370 3.686000000000000
0.115746192199986 0.453000970166024 3.684000000000000
0.115463424629465 0.461965929084700 3.675000000000000
0.115054982583157 0.470367775140729 3.662000000000000
0.114583703298955 0.478435993707624 3.647000000000000
0.114395191585274 0.487627335661001 3.641000000000000
0.114269517109487 0.497059125315852 3.637000000000000
0.114300935728434 0.507166029938118 3.638000000000000
0.114018168157913 0.515856930657794 3.629000000000000
0.113861075063179 0.525078057256239 3.624000000000000
0.113578307492658 0.533681259352236 3.615000000000000
0.112918516494775 0.540430687940891 3.594000000000000
0.113044190970562 0.590335238951344 3.598000000000000
0.113735400587392 0.603865755331802 3.620000000000000
0.113829656444232 0.614295325115241 3.623000000000000
0.114018168157913 0.625258223116261 3.629000000000000
0.113892493682126 0.634503653195792 3.625000000000000
0.114018168157913 0.645149367199618 3.629000000000000
0.114081005395806 0.655455972550331 3.631000000000000
0.114238098490540 0.666323311938523 3.636000000000000
0.114332354347381 0.676846061509622 3.639000000000000
0.114238098490540 0.686252824169741 3.636000000000000
0.114426610204221 0.697366454180210 3.642000000000000
0.114803633631583 0.709678288561359 3.654000000000000
0.115117819821050 0.721661976617354 3.664000000000000
0.115369168772625 0.733301074856257 3.672000000000000
0.115463424629465 0.743971815854815 3.675000000000000
0.115871866675774 0.756710819269580 3.688000000000000
0.116123215627348 0.768481465444002 3.696000000000000
0.116374564578922 0.780295960930263 3.704000000000000
0.116531657673656 0.791514094813174 3.709000000000000
0.116688750768390 0.802759634515986 3.714000000000000
0.116971518338911 0.814908119248203 3.723000000000000
0.117160030052592 0.826441058303141 3.729000000000000
0.117411379004166 0.838455616274672 3.737000000000000
0.117537053479954 0.849605597364656 3.741000000000000
0.117631309336794 0.860547655980224 3.744000000000000
0.117819821050475 0.872203921224711 3.750000000000000
0.118008332764155 0.883893073453079 3.756000000000000
0.118039751383102 0.894424768283793 3.757000000000000
0.116311727341029 0.942204787248620 3.702000000000000
0.116625913530497 0.954922951277933 3.712000000000000
0.119516426473602 1.020290918259402 3.804000000000000
0.121527218086196 1.048057267201263 3.868000000000000
0.120961682945154 1.053731302379373 3.850000000000000
0.118762379618879 1.055291351271356 3.780000000000000
0.119893449900963 1.075799805966795 3.816000000000000
0.119799194044123 1.085403890530193 3.813000000000000
0.119673519568336 1.094704132249524 3.809000000000000
0.120081961614644 1.108914828192915 3.822000000000000
0.120176217471484 1.120267974106981 3.825000000000000
0.120239054709378 1.131341942414891 3.827000000000000
0.120176217471484 1.141233426330415 3.825000000000000
0.120301891947271 1.152920561490438 3.829000000000000
0.120396147804112 1.164325778462314 3.832000000000000
0.120458985042005 1.175440855500074 3.834000000000000
0.120364729185165 1.185020274825562 3.831000000000000
0.120616078136739 1.198015961149510 3.839000000000000
0.120961682945154 1.211999912301376 3.850000000000000
0.121213031896728 1.225091518994974 3.858000000000000
0.120678915374633 1.230219816600253 3.841000000000000
0.118762379618879 1.221041750026036 3.780000000000000
0.120616078136739 1.313747998004856 3.839000000000000
0.121338706372516 1.332202978464507 3.862000000000000
0.121370124991462 1.343134798265760 3.863000000000000
0.120741752612526 1.346713011735172 3.843000000000000
0.120239054709378 1.351594295204530 3.827000000000000
0.120553240898846 1.365641641498989 3.837000000000000
0.120993101564101 1.381178417368712 3.851000000000000
0.120804589850420 1.389564028217032 3.845000000000000
0.120396147804112 1.395367802546549 3.832000000000000
0.120616078136739 1.408437846341049 3.839000000000000
0.121244450515675 1.426351276837149 3.859000000000000
0.121590055324090 1.441023114068504 3.870000000000000
0.122218427703026 1.459131125885893 3.890000000000000
0.129191995082303 -0.623425826148441 3.783000000000000
0.128987091045694 -0.612085867914910 3.777000000000000
0.128918789700157 -0.601416058714229 3.775000000000000
0.128543132299706 -0.589348037469237 3.764000000000000
0.128577282972475 -0.579186321207172 3.765000000000000
0.128133324226487 -0.566903811053315 3.752000000000000
0.127928420189878 -0.555731028321174 3.746000000000000
0.127723516153268 -0.544591132572913 3.740000000000000
0.127860118844341 -0.534912844011554 3.744000000000000
0.127791817498805 -0.524371842164402 3.742000000000000
0.127723516153268 -0.513841802645210 3.740000000000000
0.127518612116659 -0.502784124356648 3.734000000000000
0.127450310771122 -0.492286971821336 3.732000000000000
0.127450310771122 -0.482059119834688 3.732000000000000
0.127689365480500 -0.472716267546576 3.739000000000000
0.127723516153268 -0.462592919432371 3.740000000000000
0.127757666826036 -0.452464090154185 3.741000000000000
0.127655214807732 -0.441856952582450 3.738000000000000
0.127518612116659 -0.431150792302253 3.734000000000000
0.127313708080049 -0.420241105441152 3.728000000000000
0.127177105388976 -0.378966493644590 3.724000000000000
0.127757666826036 -0.370443952357723 3.741000000000000
0.128269926917560 -0.361635667030251 3.756000000000000
0.128508981626938 -0.351996831887220 3.763000000000000
0.128816337681852 -0.342501230521314 3.772000000000000
0.129123693736767 -0.332956298679588 3.781000000000000
0.129396899118913 -0.323276716563529 3.789000000000000
0.129840857864900 -0.313966181218244 3.802000000000000
0.130523871320265 -0.305143261182945 3.822000000000000
0.133597431869408 -0.194396014097554 3.912000000000000
0.132880267741275 -0.182688872689004 3.891000000000000
0.133290075814494 -0.172555800989898 3.903000000000000
0.132777815722970 -0.161237252182874 3.888000000000000
0.126289187897002 -0.102684498720148 3.698000000000000
0.124854859640735 -0.041400853965348 3.656000000000000
0.125367119732259 -0.031510038751829 3.671000000000000
0.125332969059490 -0.021443519345768 3.670000000000000
0.124854859640735 -0.011342150699123 3.656000000000000
0.124786558295198 -0.001321859430069 3.654000000000000
0.124410900894748 0.008666060084519 3.643000000000000
0.124274298203675 0.018629522645429 3.639000000000000
0.124205996858138 0.028586780528713 3.637000000000000
0.124205996858138 0.038554277226312 3.637000000000000
0.123864490130456 0.048388362392638 3.627000000000000
0.123625435421078 0.058215881124516 3.620000000000000
0.123625435421078 0.068136787928284 3.620000000000000
0.123762038112151 0.078143946328442 3.624000000000000
0.123693736766614 0.088027208497997 3.622000000000000
0.123659586093846 0.097926552402668 3.621000000000000
0.123830339457687 0.107999123013763 3.626000000000000
0.123898640803224 0.118001523763586 3.628000000000000
0.123898640803224 0.127944355223275 3.628000000000000
0.123625435421078 0.137583135554666 3.620000000000000
0.123693736766614 0.147585536304490 3.622000000000000
0.123693736766614 0.157511924272238 3.622000000000000
0.124001092821529 0.167854365473052 3.631000000000000
0.124103544839833 0.177952324835702 3.634000000000000
0.124171846185370 0.188015018389305 3.636000000000000
0.124035243494297 0.197761974973005 3.632000000000000
0.123796188784919 0.207315435505884 3.625000000000000
0.123557134075541 0.216830527890903 3.618000000000000
0.124547503585821 0.278537943357651 3.647000000000000
0.125196366368417 0.290036033172004 3.666000000000000
0.125742777132710 0.301392697993346 3.682000000000000
0.125913530496551 0.311906502304829 3.687000000000000
0.126084283860392 0.322447712436213 3.692000000000000
0.126050133187624 0.332475863694414 3.691000000000000
0.125879379823783 0.342127261665287 3.686000000000000
0.125674475787173 0.351655695203433 3.680000000000000
0.125606174441637 0.361544438536968 3.678000000000000
0.125879379823783 0.372432617310612 3.686000000000000
0.126152585205929 0.383364645396096 3.694000000000000
0.126084283860392 0.393275313385551 3.692000000000000
0.125913530496551 0.402847234478714 3.687000000000000
0.125811078478246 0.412615753961511 3.684000000000000
0.125981831842087 0.423285771446424 3.689000000000000
0.126084283860392 0.433748228213743 3.692000000000000
0.126255037224233 0.444467576174476 3.697000000000000
0.126186735878697 0.454353578926021 3.695000000000000
0.125845229151014 0.463222979231870 3.685000000000000
0.125059763677344 0.470367775140729 3.662000000000000
0.124649955604125 0.478829552243714 3.650000000000000
0.124410900894748 0.487895189182375 3.643000000000000
0.124410900894748 0.497879129371913 3.643000000000000
0.124205996858138 0.507026622013451 3.637000000000000
0.123898640803224 0.515714782151138 3.628000000000000
0.123762038112151 0.525078057256239 3.624000000000000
0.123557134075541 0.534124148364147 3.618000000000000
0.123079024656786 0.541934390467160 3.604000000000000
0.122396011201421 0.588038214675268 3.584000000000000
0.123352230038932 0.602531245375268 3.612000000000000
0.123522983402773 0.613277999155901 3.617000000000000
0.123898640803224 0.625085928207714 3.628000000000000
0.123830339457687 0.634678688686329 3.626000000000000
0.123898640803224 0.644971591127092 3.628000000000000
0.123898640803224 0.654914422586780 3.628000000000000
0.124069394167065 0.665773540229003 3.633000000000000
0.124069394167065 0.675730074598642 3.633000000000000
0.124205996858138 0.686441562570227 3.637000000000000
0.124410900894748 0.697557933162686 3.643000000000000
0.124854859640735 0.710066727690292 3.656000000000000
0.125128065022881 0.721661976617354 3.664000000000000
0.125435421077795 0.733500775584703 3.673000000000000
0.125776927805478 0.745591346338308 3.683000000000000
0.126118434533160 0.757736728731713 3.693000000000000
0.126289187897002 0.768897310392835 3.698000000000000
0.126528242606379 0.780506623986670 3.705000000000000
0.126869749334062 0.792794516643554 3.715000000000000
0.127040502697903 0.804056499838306 3.720000000000000
0.127177105388976 0.815127004050580 3.724000000000000
0.127347858752817 0.826441058303141 3.729000000000000
0.127655214807732 0.838679982241029 3.738000000000000
0.127894269517110 0.850514023558043 3.745000000000000
0.127996721535414 0.861467044501570 3.748000000000000
0.128201625572024 0.873134272074018 3.754000000000000
0.128440680281402 0.885069714924661 3.761000000000000
0.128543132299706 0.896091250417939 3.764000000000000
0.126528242606379 0.942968324353360 3.705000000000000
0.129772556519363 0.977561210898746 3.800000000000000
0.129840857864900 1.009334794977061 3.802000000000000
0.131958199576532 1.036383834951190 3.864000000000000
0.131889898230995 1.046431532040144 3.862000000000000
0.132026500922068 1.058110445454197 3.866000000000000
0.130592172665802 1.078055151471967 3.824000000000000
0.130558021993033 1.088250478231557 3.823000000000000
0.130114063247046 1.094991531601651 3.810000000000000
0.130318967283656 1.107173988588217 3.816000000000000
0.130558021993033 1.119682213074768 3.823000000000000
0.130523871320265 1.129863836924409 3.822000000000000
0.130660474011338 1.141531788010502 3.826000000000000
0.130626323338570 1.151716152442132 3.825000000000000
0.130831227375179 1.164021935618248 3.831000000000000
0.130933679393484 1.175440855500074 3.834000000000000
0.131275186121167 1.189041486930164 3.844000000000000
0.131343487466703 1.200200413279764 3.846000000000000
0.131958199576532 1.216407184709745 3.864000000000000
0.131650843521617 1.224138881732925 3.855000000000000
0.131445939485008 1.232782107288304 3.849000000000000
0.130523871320265 1.234608880581880 3.822000000000000
0.130592172665802 1.308614833125963 3.824000000000000
0.131104432757325 1.324269092264433 3.839000000000000
0.131206884775630 1.335833262991729 3.842000000000000
0.130728775356875 1.341456520666729 3.828000000000000
0.130592172665802 1.350534775244871 3.824000000000000
0.130797076702411 1.363150244185855 3.830000000000000
0.131206884775630 1.377950527013917 3.842000000000000
0.130899528720716 1.385227287426758 3.833000000000000
0.130762926029643 1.394275395603010 3.829000000000000
0.130694624684106 1.404035331583015 3.827000000000000
0.131241035448398 1.420437407847931 3.843000000000000
0.131684994194386 1.435810110555077 3.856000000000000
0.132709514377433 1.457630733982669 3.886000000000000
0.139748651048426 -0.634798671365851 3.789000000000000
0.139490471962298 -0.623261029472219 3.782000000000000
0.139453589235708 -0.612734092291839 3.781000000000000
0.139084761969811 -0.600778796665260 3.771000000000000
0.138863465610273 -0.589504612399489 3.765000000000000
0.138789700157093 -0.578878652510647 3.763000000000000
0.138568403797555 -0.567659279884676 3.757000000000000
0.138236459258247 -0.556027734689739 3.748000000000000
0.138088928351889 -0.545173582982082 3.744000000000000
0.138199576531658 -0.535341460072461 3.747000000000000
0.138088928351889 -0.524652105041027 3.744000000000000
0.138088928351889 -0.514391366070499 3.744000000000000
0.137867631992350 -0.503322725453977 3.738000000000000
0.137683218359402 -0.492418881513678 3.733000000000000
0.137535687453043 -0.481671612503631 3.729000000000000
0.137683218359402 -0.471957696376403 3.733000000000000
0.137830749265761 -0.462221855593254 3.737000000000000
0.137941397445530 -0.452343142789803 3.740000000000000
0.137904514718940 -0.441975159364843 3.739000000000000
0.137793866539171 -0.431381724703058 3.736000000000000
0.137498804726453 -0.420241105441152 3.728000000000000
0.137498804726453 -0.379373546806400 3.728000000000000
0.138162693805068 -0.370939065900035 3.746000000000000
0.138752817430503 -0.362213359789085 3.762000000000000
0.139158527422990 -0.352932247332043 3.773000000000000
0.139748651048426 -0.344044846883684 3.789000000000000
0.140375657400451 -0.335157808192148 3.806000000000000
0.141260842838604 -0.326774828302538 3.830000000000000
0.144322109145550 -0.183721809003360 3.913000000000000
0.144395874598730 -0.173086333813849 3.915000000000000
0.143842633699884 -0.161734898022944 3.900000000000000
0.142736151902192 -0.149884731121501 3.870000000000000
0.142293559183116 -0.138846806947924 3.858000000000000
0.141777201010860 -0.127808159260701 3.844000000000000
0.138605286524145 -0.114649660441891 3.758000000000000
0.135101427498122 -0.041480122558827 3.663000000000000
0.135802199303326 -0.031604457282549 3.682000000000000
0.135839082029916 -0.021519477316203 3.683000000000000
0.135285841131070 -0.011379378764875 3.668000000000000
0.135101427498122 -0.001325115241473 3.663000000000000
0.134953896591763 0.008704121287196 3.659000000000000
0.134843248411994 0.018716552567103 3.656000000000000
0.134585069325866 0.028681100398481 3.649000000000000
0.134437538419507 0.038639081795410 3.645000000000000
0.134179359333379 0.048535115077038 3.638000000000000
0.133958062973841 0.058408861945923 3.632000000000000
0.134031828427020 0.068400300367786 3.634000000000000
0.134216242059969 0.078467389814901 3.639000000000000
0.134105593880199 0.088367457233218 3.636000000000000
0.134105593880199 0.098332213348827 3.636000000000000
0.134253124786558 0.108416108044704 3.640000000000000
0.134290007513148 0.118424351715330 3.641000000000000
0.134216242059969 0.128332279122794 3.639000000000000
0.133921180247251 0.138001205856076 3.631000000000000
0.133847414794071 0.147870765115680 3.629000000000000
0.133736766614302 0.157685874492307 3.626000000000000
0.133847414794071 0.167761909199037 3.629000000000000
0.134068711153610 0.178001293554699 3.635000000000000
0.134179359333379 0.188118436991279 3.638000000000000
0.134290007513148 0.198252023919800 3.641000000000000
0.134068711153610 0.207887340155555 3.635000000000000
0.133921180247251 0.217609631501346 3.631000000000000
0.134769482958814 0.279072565129931 3.654000000000000
0.135470254764019 0.290589839018214 3.673000000000000
0.136023495662865 0.301883832210608 3.688000000000000
0.136134143842634 0.312244887444298 3.691000000000000
0.136392322928762 0.322971733637355 3.698000000000000
0.136244792022403 0.332746096040955 3.694000000000000
0.136171026569223 0.342684169850309 3.692000000000000
0.136060378389454 0.352515722718877 3.689000000000000
0.136060378389454 0.362625729679955 3.689000000000000
0.136318557475582 0.373443015078682 3.696000000000000
0.136502971108531 0.384091107907675 3.701000000000000
0.136466088381941 0.394127480911846 3.700000000000000
0.136281674748993 0.403721326660930 3.695000000000000
0.136134143842634 0.413399768694880 3.691000000000000
0.136134143842634 0.423515256819938 3.691000000000000
0.136281674748993 0.434100678019984 3.695000000000000
0.136429205655351 0.444708023875950 3.699000000000000
0.136281674748993 0.454353578926021 3.695000000000000
0.135765316576737 0.462720159173002 3.681000000000000
0.134843248411994 0.469597101560487 3.656000000000000
0.134511303872686 0.478435993707624 3.647000000000000
0.134400655692917 0.488029115943062 3.644000000000000
0.134437538419507 0.498152464057267 3.645000000000000
0.134216242059969 0.507305437862784 3.639000000000000
0.133810532067482 0.515714782151138 3.628000000000000
0.133589235707943 0.524788279078945 3.622000000000000
0.133515470254764 0.534419407705420 3.620000000000000
0.132888463902739 0.541784020214533 3.603000000000000
0.131929513011406 0.586889702537231 3.577000000000000
0.132814698449559 0.600696294185033 3.601000000000000
0.133331056621815 0.612938890502787 3.615000000000000
0.133884297520661 0.625430518024808 3.630000000000000
0.133736766614302 0.634678688686329 3.626000000000000
0.133589235707943 0.643904934691931 3.622000000000000
0.133699883887713 0.654372872623230 3.625000000000000
0.133773649340892 0.664673996809963 3.627000000000000
0.133958062973841 0.675544076780145 3.632000000000000
0.134068711153610 0.686064085769254 3.635000000000000
0.134363772966327 0.697557933162686 3.643000000000000
0.134621952052455 0.708901410303492 3.650000000000000
0.135101427498122 0.721465016470898 3.663000000000000
0.135544020217198 0.733900177041596 3.675000000000000
0.136318557475582 0.748223083373985 3.696000000000000
0.136318557475582 0.758352274408993 3.696000000000000
0.136539853835121 0.769729000290502 3.702000000000000
0.136761150194659 0.781138613155890 3.708000000000000
0.137351273820094 0.794715149389124 3.724000000000000
0.137498804726453 0.805785653601399 3.728000000000000
0.137572570179633 0.816440312864840 3.730000000000000
0.137572570179633 0.826662683687508 3.730000000000000
0.137867631992350 0.838679982241029 3.738000000000000
0.138199576531658 0.850968236654736 3.747000000000000
0.138420872891196 0.862616280153253 3.753000000000000
0.138420872891196 0.872901684361691 3.753000000000000
0.138383990164606 0.882951760275812 3.752000000000000
0.138310224711427 0.892758286149647 3.750000000000000
0.139269175602759 0.961038702498863 3.776000000000000
0.138162693805068 0.963669551585975 3.746000000000000
0.141592787377911 0.998115170217547 3.839000000000000
0.141334608291783 1.006797125677609 3.832000000000000
0.143068096441500 1.051037781663314 3.879000000000000
0.141150194658835 1.057924491485011 3.827000000000000
0.141002663752476 1.067295988336083 3.823000000000000
0.141223960112014 1.079464742412699 3.829000000000000
0.141002663752476 1.088250478231557 3.823000000000000
0.140855132846117 1.097578125770789 3.819000000000000
0.140855132846117 1.108044408390566 3.819000000000000
0.141113311932245 1.120560854623088 3.826000000000000
0.141113311932245 1.131046321316795 3.826000000000000
0.141187077385425 1.142128511370675 3.828000000000000
0.141260842838604 1.153221663752514 3.830000000000000
0.141334608291783 1.164325778462314 3.832000000000000
0.141334608291783 1.174827688647961 3.832000000000000
0.141445256471553 1.186257570857747 3.835000000000000
0.141592787377911 1.198015961149510 3.839000000000000
0.141260842838604 1.205703808860850 3.830000000000000
0.141371491018373 1.217152875144566 3.833000000000000
0.141703435557681 1.230540102936260 3.842000000000000
0.141408373744963 1.238485203597836 3.834000000000000
0.139859299228195 1.297664081384323 3.792000000000000
0.140818250119527 1.317025109212192 3.818000000000000
0.140892015572707 1.328184035561792 3.820000000000000
0.140892015572707 1.338653058763559 3.820000000000000
0.141002663752476 1.350181601924985 3.823000000000000
0.141223960112014 1.362794330283979 3.829000000000000
0.141371491018373 1.374722636659121 3.833000000000000
0.140928898299297 1.380890546636484 3.821000000000000
0.140965781025886 1.391726446068087 3.822000000000000
0.141076429205655 1.403301579123343 3.825000000000000
0.141445256471553 1.417480473353321 3.835000000000000
0.141703435557681 1.430597107041651 3.842000000000000
0.141850966464039 1.442626814950423 3.846000000000000
0.140781367392938 1.525896186754219 3.817000000000000
0.149426951710949 -0.631950537976245 3.772000000000000
0.149506181271771 -0.621942656062441 3.774000000000000
0.149625025613005 -0.612085867914910 3.777000000000000
0.149387336930538 -0.600778796665260 3.771000000000000
0.149110033467659 -0.589348037469237 3.764000000000000
0.149110033467659 -0.579032486858909 3.764000000000000
0.148951574346015 -0.568112561183493 3.760000000000000
0.148555426541903 -0.556324441058303 3.750000000000000
0.148317737859436 -0.545173582982082 3.744000000000000
0.148396967420258 -0.535198588052159 3.746000000000000
0.148436582200669 -0.525072499355963 3.747000000000000
0.148436582200669 -0.514803538639465 3.747000000000000
0.148278123079025 -0.503995976825639 3.743000000000000
0.148080049176969 -0.493078429975390 3.738000000000000
0.147961204835735 -0.482446627165745 3.735000000000000
0.148000819616146 -0.472336981961489 3.736000000000000
0.148080049176969 -0.462345543539626 3.738000000000000
0.148080049176969 -0.452101248061038 3.738000000000000
0.148198893518202 -0.442211572929627 3.741000000000000
0.148119663957380 -0.431728123304265 3.739000000000000
0.147921590055324 -0.420917459151625 3.734000000000000
0.148793115224370 -0.371929292984658 3.756000000000000
0.149704255173827 -0.363850155939115 3.779000000000000
0.150496550782050 -0.355364327488585 3.799000000000000
0.155923775698381 -0.184801696968368 3.936000000000000
0.155171094870569 -0.173174755951174 3.917000000000000
0.154418414042757 -0.161651957049599 3.898000000000000
0.153824192336589 -0.150388219882374 3.883000000000000
0.153071511508777 -0.139062742884079 3.864000000000000
0.152516904583020 -0.128007651704916 3.850000000000000
0.151843453316030 -0.116937772345335 3.833000000000000
0.145425858889420 -0.041570715237088 3.671000000000000
0.145980465815177 -0.031630207790927 3.685000000000000
0.145940851034765 -0.021525320237006 3.684000000000000
0.145703162352298 -0.011410402153001 3.678000000000000
0.145663547571887 -0.001330179836990 3.677000000000000
0.145623932791476 0.008744561315041 3.676000000000000
0.145584318011065 0.018813821303092 3.675000000000000
0.145267399767775 0.028822580203132 3.667000000000000
0.144831637183253 0.038755688077920 3.656000000000000
0.144554333720374 0.048681867761438 3.649000000000000
0.144435489379141 0.058634006237565 3.646000000000000
0.144395874598730 0.068607345855966 3.645000000000000
0.144514718939963 0.078661455906776 3.648000000000000
0.144554333720374 0.088683402487352 3.649000000000000
0.144475104159552 0.098629698042676 3.647000000000000
0.144593948500785 0.108713954495377 3.650000000000000
0.144475104159552 0.118619503077674 3.647000000000000
0.144712792842019 0.128826000449455 3.653000000000000
0.144554333720374 0.138685320894745 3.649000000000000
0.144435489379141 0.148563463657142 3.646000000000000
0.144158185916263 0.158251212707531 3.639000000000000
0.144118571135851 0.168177962432102 3.638000000000000
0.144316645037907 0.178393043306677 3.643000000000000
0.144197800696674 0.188221855593254 3.640000000000000
0.144435489379141 0.198524273334685 3.646000000000000
0.144277030257496 0.208287673410325 3.642000000000000
0.144277030257496 0.218268873017874 3.642000000000000
0.145069325865720 0.279683561441108 3.662000000000000
0.145901236254354 0.291380990227085 3.683000000000000
0.146376613619288 0.302456822130748 3.695000000000000
0.146257769278055 0.312329483729165 3.692000000000000
0.146535072740933 0.323059070504212 3.699000000000000
0.146614302301755 0.333376638182884 3.701000000000000
0.146653917082167 0.343612350158680 3.702000000000000
0.146495457960522 0.353375750234320 3.698000000000000
0.146416228399700 0.363313824043674 3.696000000000000
0.146614302301755 0.373948213962717 3.701000000000000
0.146851990984222 0.384713790060457 3.707000000000000
0.146970835325456 0.395192690319716 3.710000000000000
0.146851990984222 0.405032464934253 3.707000000000000
0.146733146642989 0.414855796056851 3.704000000000000
0.146574687521344 0.424547941000751 3.700000000000000
0.146693531862578 0.435040544169960 3.703000000000000
0.146812376203811 0.445549590831109 3.706000000000000
0.146574687521344 0.454968401089655 3.700000000000000
0.145940851034765 0.463097274217153 3.684000000000000
0.144990096304897 0.470110883947315 3.660000000000000
0.144593948500785 0.478829552243714 3.650000000000000
0.144158185916263 0.487359482139627 3.639000000000000
0.144118571135851 0.497195792658529 3.638000000000000
0.143801652892562 0.506050766540783 3.630000000000000
0.143682808551328 0.515572633644481 3.627000000000000
0.143524349429684 0.524933168167592 3.623000000000000
0.143365890308039 0.534271778034783 3.619000000000000
0.142652824260638 0.541483279709279 3.601000000000000
0.141820913872003 0.587381922024961 3.580000000000000
0.142415135578171 0.599695411717632 3.595000000000000
0.143009357284339 0.612091118870003 3.610000000000000
0.143682808551328 0.624913633299167 3.627000000000000
0.143880882453384 0.635728901629550 3.632000000000000
0.143722423331740 0.644971591127092 3.628000000000000
0.143801652892562 0.655275455895814 3.630000000000000
0.143722423331740 0.664857254046469 3.628000000000000
0.143801652892562 0.675172081143151 3.630000000000000
0.143920497233796 0.685686608968280 3.633000000000000
0.144158185916263 0.696792017232780 3.639000000000000
0.144554333720374 0.708707190739025 3.649000000000000
0.145307014548187 0.722449817203181 3.668000000000000
0.146020080595588 0.736096885054510 3.686000000000000
0.146772761423400 0.750045055167915 3.705000000000000
0.146970835325456 0.761224820902967 3.710000000000000
0.147050064886278 0.771808225034668 3.712000000000000
0.147248138788334 0.783034580663550 3.717000000000000
0.147565057031624 0.794928553027521 3.725000000000000
0.147683901372857 0.805785653601399 3.728000000000000
0.147446212690390 0.814689234445827 3.722000000000000
0.147644286592446 0.825997807534408 3.727000000000000
0.147961204835735 0.838006884341959 3.735000000000000
0.148555426541903 0.851649556299776 3.750000000000000
0.148515811761492 0.861696891631907 3.749000000000000
0.148713885663548 0.873134272074018 3.754000000000000
0.148357352639847 0.881304462215596 3.745000000000000
0.148080049176969 0.889901459633968 3.738000000000000
0.150694624684106 0.968165048809765 3.804000000000000
0.146059695375999 0.948491627522021 3.687000000000000
0.151962297657264 1.007848062134475 3.836000000000000
0.154656102725224 1.036413213990123 3.904000000000000
0.154497643603579 1.046039584966263 3.900000000000000
0.151764223755208 1.048531069978020 3.831000000000000
0.151684994194386 1.058477365533345 3.829000000000000
0.151605764633563 1.068412698760709 3.827000000000000
0.151209616829452 1.076081724154941 3.817000000000000
0.151288846390274 1.087111843151011 3.819000000000000
0.151328461170685 1.097865525122915 3.820000000000000
0.151288846390274 1.108044408390566 3.819000000000000
0.151684994194386 1.121439496171407 3.829000000000000
0.151447305511919 1.130159458022505 3.823000000000000
0.151486920292330 1.140935064650329 3.824000000000000
0.151328461170685 1.150210641131751 3.820000000000000
0.151605764633563 1.162806564241982 3.827000000000000
0.151724608974797 1.174214521795848 3.830000000000000
0.151684994194386 1.184401626809469 3.829000000000000
0.151447305511919 1.193022927708928 3.823000000000000
0.151328461170685 1.202555757140586 3.820000000000000
0.151407690731507 1.213659871850386 3.822000000000000
0.151368075951096 1.223814089880127 3.821000000000000
0.151526535072741 1.235577961335869 3.825000000000000
0.147881975274913 1.277473632860674 3.733000000000000
0.150140017758350 1.307366465142538 3.790000000000000
0.150536165562462 1.321230192443667 3.800000000000000
0.151011542927396 1.335849596860389 3.812000000000000
0.151368075951096 1.349475255285212 3.821000000000000
0.151764223755208 1.363506158087731 3.831000000000000
0.151605764633563 1.372570709755924 3.827000000000000
0.151447305511919 1.381613336768196 3.823000000000000
0.151328461170685 1.390998174772395 3.820000000000000
0.151486920292330 1.402934702893506 3.824000000000000
0.151605764633563 1.414523538858712 3.827000000000000
0.151684994194386 1.425756460922041 3.829000000000000
0.151962297657264 1.438875835192361 3.836000000000000
0.147208524007923 1.495704104843705 3.716000000000000
0.149783484734649 1.542591132572913 3.781000000000000
0.160536848575917 -0.645523292206333 3.791000000000000
0.160113380233591 -0.633458373300154 3.781000000000000
0.159816952393962 -0.621942656062441 3.774000000000000
0.159859299228195 -0.611761755726446 3.775000000000000
0.159605218222799 -0.600460165640775 3.769000000000000
0.159520524554334 -0.589817762259993 3.767000000000000
0.159478177720101 -0.579340155555434 3.766000000000000
0.159351137217403 -0.568565842482310 3.763000000000000
0.158800628372379 -0.556324441058303 3.750000000000000
0.158419506864285 -0.544736745175205 3.741000000000000
0.158461853698518 -0.534627099970950 3.742000000000000
0.158588894201216 -0.524792236479339 3.745000000000000
0.158419506864285 -0.513979193501532 3.741000000000000
0.158419506864285 -0.503726676276974 3.741000000000000
0.158334813195820 -0.493210339667732 3.739000000000000
0.158334813195820 -0.482963303607154 3.739000000000000
0.158207772693122 -0.472336981961489 3.736000000000000
0.158207772693122 -0.462098167646882 3.736000000000000
0.158165425858889 -0.451738405967891 3.735000000000000
0.158419506864285 -0.442211572929627 3.741000000000000
0.158588894201216 -0.432420920506679 3.745000000000000
0.158334813195820 -0.421481087243687 3.739000000000000
0.167185301550441 -0.185365116776199 3.948000000000000
0.166296018031555 -0.173616866637799 3.927000000000000
0.165533775015368 -0.162108132402997 3.909000000000000
0.165322040844205 -0.151201547880708 3.904000000000000
0.165067959838809 -0.140286379855626 3.898000000000000
0.164475104159552 -0.129138108888804 3.884000000000000
0.155751656307629 -0.041649983830566 3.678000000000000
0.156175124649956 -0.031655958299304 3.688000000000000
0.156386858821119 -0.021577906524230 3.693000000000000
0.156217471484188 -0.011444527879941 3.689000000000000
0.156344511986886 -0.001335606189330 3.692000000000000
0.156217471484188 0.008775486042216 3.689000000000000
0.156217471484188 0.018885493003294 3.689000000000000
0.155497575302233 0.028861880148868 3.672000000000000
0.155201147462605 0.038851093218156 3.665000000000000
0.154904719622977 0.048801938139583 3.658000000000000
0.154904719622977 0.058826987058972 3.658000000000000
0.154820025954511 0.068814391344146 3.656000000000000
0.154904719622977 0.078877084897749 3.658000000000000
0.154989413291442 0.088950740779312 3.660000000000000
0.154989413291442 0.098981270862680 3.660000000000000
0.154650638617581 0.108773523785511 3.652000000000000
0.154650638617581 0.118782129212960 3.652000000000000
0.154820025954511 0.128931797876597 3.656000000000000
0.154862372788744 0.138989372023043 3.657000000000000
0.154735332286046 0.148889439441360 3.654000000000000
0.154565944949115 0.158729575812720 3.650000000000000
0.154396557612185 0.168547787528159 3.646000000000000
0.154438904446418 0.178588918182665 3.647000000000000
0.154523598114883 0.188687239302138 3.649000000000000
0.155116453794140 0.199449921345297 3.663000000000000
0.155158800628372 0.209545863639602 3.664000000000000
0.154947066457209 0.219287700816145 3.659000000000000
0.155285841131070 0.280065434135593 3.667000000000000
0.156090430981490 0.291618335589746 3.686000000000000
0.156810327163445 0.303111667753764 3.703000000000000
0.156725633494980 0.313090850292968 3.701000000000000
0.157106755003074 0.324019776039640 3.710000000000000
0.156979714500376 0.333917102875967 3.707000000000000
0.157106755003074 0.344354894405376 3.710000000000000
0.157106755003074 0.354522453588244 3.710000000000000
0.157233795505771 0.364984910355563 3.713000000000000
0.157360836008469 0.375463810614822 3.716000000000000
0.157487876511167 0.385959154366021 3.719000000000000
0.157614917013865 0.396470941609160 3.722000000000000
0.157572570179633 0.406562126253131 3.721000000000000
0.157445529676935 0.416423825523588 3.718000000000000
0.157403182842702 0.426498566675619 3.717000000000000
0.157360836008469 0.436567826663670 3.716000000000000
0.157318489174237 0.446631605487741 3.715000000000000
0.156810327163445 0.455337294387836 3.703000000000000
0.155878696810327 0.462720159173002 3.681000000000000
0.154947066457209 0.469982438350608 3.659000000000000
0.154311863943720 0.478042435171533 3.644000000000000
0.153803701932928 0.486421994814819 3.632000000000000
0.153591967761765 0.495692451889083 3.627000000000000
0.153464927259067 0.505214318992781 3.624000000000000
0.153464927259067 0.515146188124510 3.624000000000000
0.153295539922136 0.524498500901651 3.620000000000000
0.153168499419439 0.533976518693510 3.617000000000000
0.152279215900553 0.540731428446145 3.596000000000000
0.151644013387064 0.587545995187538 3.581000000000000
0.152109828563623 0.599194970483932 3.592000000000000
0.152745031077112 0.611582455890333 3.607000000000000
0.153253193087904 0.623535274030793 3.619000000000000
0.153591967761765 0.634853724176866 3.627000000000000
0.153591967761765 0.644793815054565 3.627000000000000
0.153803701932928 0.655636489204848 3.632000000000000
0.153676661430230 0.665040511282976 3.629000000000000
0.153803701932928 0.675544076780145 3.632000000000000
0.153973089269859 0.686252824169741 3.636000000000000
0.154438904446418 0.698323849092593 3.647000000000000
0.154947066457209 0.710649386383692 3.659000000000000
0.155794003141862 0.724616378814205 3.679000000000000
0.156598592992282 0.738493293795870 3.698000000000000
0.157276142340004 0.751867026961846 3.714000000000000
0.157403182842702 0.762661094149954 3.717000000000000
0.157657263848098 0.774095372253252 3.723000000000000
0.157699610682330 0.784509222058396 3.724000000000000
0.157953691687726 0.795995571219504 3.730000000000000
0.157996038521959 0.806434086262559 3.731000000000000
0.157868998019261 0.816002543260087 3.728000000000000
0.158165425858889 0.827770810609341 3.735000000000000
0.158461853698518 0.839577446106455 3.742000000000000
0.159012362543542 0.852785089041509 3.755000000000000
0.158927668875077 0.862616280153253 3.753000000000000
0.158927668875077 0.872901684361691 3.753000000000000
0.158334813195820 0.879892492449697 3.739000000000000
0.157953691687726 0.887996908623515 3.730000000000000
0.161934294105594 0.983735281704423 3.824000000000000
0.160113380233591 1.003759826356725 3.781000000000000
0.161256744757872 1.031799915590075 3.808000000000000
0.162400109282153 1.049625855746726 3.835000000000000
0.162527149784851 1.060965298750843 3.838000000000000
0.161764906768663 1.066458455517614 3.820000000000000
0.161341438426337 1.074108296837916 3.810000000000000
0.161383785260570 1.084834572989920 3.811000000000000
0.161807253602896 1.098152924475041 3.821000000000000
0.162018987774059 1.110075387929381 3.826000000000000
0.162273068779455 1.122318137719726 3.832000000000000
0.162018987774059 1.131046321316795 3.826000000000000
0.161849600437129 1.140338341290156 3.822000000000000
0.161637866265965 1.149307334345522 3.817000000000000
0.161891947271361 1.161591192865717 3.823000000000000
0.161934294105594 1.172375021239510 3.824000000000000
0.161764906768663 1.181617710737052 3.820000000000000
0.161637866265965 1.191150540168710 3.817000000000000
0.161722559934431 1.202240951968560 3.819000000000000
0.161764906768663 1.213024780342354 3.820000000000000
0.161849600437129 1.224134376216133 3.822000000000000
0.162230721945222 1.237516122843847 3.831000000000000
0.161934294105594 1.245734919947600 3.824000000000000
0.155243494296838 1.254545496401616 3.666000000000000
0.158631241035448 1.292188595890223 3.746000000000000
0.160198073902056 1.315319425793261 3.783000000000000
0.161045010586709 1.332695702219323 3.803000000000000
0.161341438426337 1.345590348766464 3.810000000000000
0.161807253602896 1.359947019068970 3.821000000000000
0.161637866265965 1.368984164917262 3.817000000000000
0.161553172597500 1.378722176241346 3.815000000000000
0.161426132094802 1.388085089589625 3.812000000000000
0.161510825763268 1.399265940595145 3.814000000000000
0.161680213100198 1.411196987552277 3.818000000000000
0.161849600437129 1.423149959165328 3.822000000000000
0.162061334608292 1.435499953410106 3.827000000000000
0.163035311795642 1.454678447515114 3.850000000000000
0.156810327163445 1.510768305717402 3.703000000000000
0.157106755003074 1.533959318800940 3.710000000000000
0.170984222389181 -0.645863847886737 3.793000000000000
0.170803906836965 -0.634798671365851 3.789000000000000
0.170443275732532 -0.623096232795997 3.781000000000000
0.170217881292261 -0.611923811820678 3.776000000000000
0.169992486851991 -0.600778796665260 3.771000000000000
0.169812171299775 -0.589817762259993 3.767000000000000
0.169902329075883 -0.579801658600220 3.769000000000000
0.169631855747558 -0.568565842482310 3.763000000000000
0.169135987978963 -0.556621147426868 3.752000000000000
0.168595041322314 -0.544591132572913 3.740000000000000
0.168549962434260 -0.534198483910043 3.739000000000000
0.168549962434260 -0.523951447849465 3.739000000000000
0.168414725770098 -0.513292239219921 3.736000000000000
0.168504883546206 -0.503322725453977 3.738000000000000
0.168459804658152 -0.492946520283047 3.737000000000000
0.168504883546206 -0.482834134496802 3.738000000000000
0.168234410217881 -0.471831267848040 3.732000000000000
0.168234410217881 -0.461603415861392 3.732000000000000
0.168279489105935 -0.451496511239127 3.733000000000000
0.168730277986476 -0.442447986494412 3.743000000000000
0.169181066867017 -0.433344650109897 3.753000000000000
0.169045830202855 -0.422721069046223 3.750000000000000
0.177114951164538 -0.152169795497772 3.929000000000000
0.176934635612322 -0.141258091568326 3.925000000000000
0.176483846731781 -0.130168819850584 3.915000000000000
0.175942900075132 -0.119073343455216 3.903000000000000
0.166431254695718 -0.041808521017523 3.692000000000000
0.166972201352367 -0.031793294343987 3.704000000000000
0.167197595792637 -0.021671393257072 3.709000000000000
0.166972201352367 -0.011491062962131 3.704000000000000
0.167287753568745 -0.001342479568961 3.711000000000000
0.167242674680691 0.008825441370729 3.710000000000000
0.167242674680691 0.018993000553598 3.710000000000000
0.166656649135988 0.029058379877551 3.697000000000000
0.165980465815177 0.039031302927490 3.682000000000000
0.165755071374906 0.049055420049002 3.677000000000000
0.165664913598798 0.059100376555965 3.675000000000000
0.165664913598798 0.069172015369184 3.675000000000000
0.165259203606311 0.079049588090527 3.666000000000000
0.165304282494365 0.089120865146923 3.667000000000000
0.165214124718257 0.099116491178067 3.665000000000000
0.165214124718257 0.109160724171385 3.665000000000000
0.165169045830203 0.119172431937646 3.664000000000000
0.165123966942149 0.129178658539927 3.663000000000000
0.165169045830203 0.139255416760303 3.664000000000000
0.164808414725770 0.148970933387414 3.656000000000000
0.164763335837716 0.158947013587805 3.655000000000000
0.164718256949662 0.168917612624217 3.654000000000000
0.164943651389932 0.179176542810631 3.659000000000000
0.165259203606311 0.189566297418920 3.666000000000000
0.165619834710744 0.200048870058045 3.674000000000000
0.165664913598798 0.210174958754241 3.675000000000000
0.165394440270473 0.219887011285717 3.669000000000000
0.164537941397446 0.228751445657000 3.650000000000000
0.165619834710744 0.280600055907873 3.674000000000000
0.166521412471826 0.292251256556842 3.694000000000000
0.167287753568745 0.303766513376781 3.711000000000000
0.167783621337340 0.314867372275176 3.722000000000000
0.168009015777611 0.325504502776209 3.727000000000000
0.167783621337340 0.335268264608672 3.722000000000000
0.167513148009016 0.344911802590398 3.716000000000000
0.167468069120962 0.355000246652379 3.715000000000000
0.167513148009016 0.365279807940014 3.716000000000000
0.167783621337340 0.376070049275664 3.722000000000000
0.167963936889557 0.386685616877600 3.726000000000000
0.168054094665665 0.397110067253882 3.728000000000000
0.168054094665665 0.407326956912570 3.728000000000000
