# This PCD file was generated using the MATLAB® pcwrite function
# from Computer Vision System Toolbox®.
# .PCD v.7 - Point Cloud Data file format
VERSION .7
FIELDS x y z
SIZE 8 8 8
TYPE F F F
COUNT 1 1 1
WIDTH 864
HEIGHT 1
VIEWPOINT 0 0 0 1 0 0 0
POINTS 864
DATA ascii
-0.415422443822143 0.231821335978908 3.270000000000000
-0.414024998292466 0.239973065560202 3.259000000000000
-0.413008674270883 0.248293625954408 3.251000000000000
-0.412373471757394 0.256807682399434 3.246000000000000
-0.412246431254696 0.265621755836069 3.245000000000000
-0.411865309746602 0.274261155538990 3.242000000000000
-0.413008674270883 0.283932154152256 3.251000000000000
-0.413389795778977 0.293112018548259 3.254000000000000
-0.413135714773581 0.301844236282017 3.252000000000000
-0.412500512260092 0.310278815849334 3.247000000000000
-0.412881633768185 0.319472383155287 3.250000000000000
-0.412754593265487 0.328278234845952 3.249000000000000
-0.412246431254696 0.336767264296246 3.245000000000000
-0.411357147735810 0.344914806268259 3.238000000000000
-0.411865309746602 0.354225856842959 3.242000000000000
-0.412246431254696 0.363446829968812 3.245000000000000
-0.412754593265487 0.372798989273362 3.249000000000000
-0.412119390751998 0.381115723815109 3.244000000000000
-0.408689297179154 0.386760127820744 3.217000000000000
-0.406783689638686 0.420058144187500 3.202000000000000
-0.412627552762790 0.434994118711049 3.248000000000000
-0.414533160303258 0.445945539154695 3.263000000000000
-0.415676524827539 0.456142729510039 3.272000000000000
-0.416184686838331 0.465678507807918 3.276000000000000
-0.416438767843727 0.474946432584424 3.278000000000000
-0.416438767843727 0.483930060347615 3.278000000000000
-0.417709172870706 0.494417390637076 3.288000000000000
-0.418217334881497 0.504040867558635 3.292000000000000
-0.419233658903080 0.514309674802541 3.300000000000000
-0.418725496892289 0.522719227375125 3.296000000000000
-0.418344375384195 0.531268187872377 3.293000000000000
-0.417582132368008 0.539308485389957 3.287000000000000
-0.418217334881497 0.549150847113893 3.292000000000000
-0.419614780411174 0.560037940617069 3.303000000000000
-0.420504063930059 0.570296147289838 3.310000000000000
-0.421266306946247 0.580417686619931 3.316000000000000
-0.419995901919268 0.587727695773474 3.306000000000000
-0.419995901919268 0.596788059832386 3.306000000000000
-0.420885185438153 0.607131224546845 3.313000000000000
-0.422663752475924 0.618814742138641 3.327000000000000
-0.424188238508299 0.630197519225183 3.339000000000000
-0.426093846048767 0.642220507226915 3.354000000000000
-0.425458643535278 0.659619530483493 3.349000000000000
-0.422917833481320 0.664803724999041 3.329000000000000
-0.422917833481320 0.673927122443722 3.329000000000000
-0.423934157502903 0.684691975027817 3.337000000000000
-0.424061198005601 0.694045219602835 3.338000000000000
-0.423044873984018 0.701507977834173 3.330000000000000
-0.421266306946247 0.707646464923291 3.316000000000000
-0.415041322314050 0.706143168003157 3.267000000000000
-0.421647428454341 0.762862625587170 3.319000000000000
-0.424696400519090 0.777540722307789 3.343000000000000
-0.425839765043371 0.788820442549180 3.352000000000000
-0.425966805546069 0.798244942255937 3.353000000000000
-0.424950481524486 0.805507638002006 3.345000000000000
-0.424569360016392 0.813944234637668 3.342000000000000
-0.423934157502903 0.821871806536836 3.337000000000000
-0.423807117000205 0.830768097433171 3.336000000000000
-0.423680076497507 0.839658907165526 3.335000000000000
-0.424061198005601 0.849562285206886 3.338000000000000
-0.423934157502903 0.858453094939241 3.337000000000000
-0.424823441021788 0.869418371765428 3.344000000000000
-0.426347927054163 0.881735687310557 3.356000000000000
-0.421901509459736 0.881641466101741 3.321000000000000
-0.422917833481320 0.892888661116075 3.329000000000000
-0.424442319513694 0.905263528882994 3.341000000000000
-0.425077522027184 0.915788295522437 3.346000000000000
-0.424950481524486 0.924681845836782 3.345000000000000
-0.424188238508299 0.932174026956364 3.339000000000000
-0.424061198005601 0.941042912032799 3.338000000000000
-0.424823441021788 0.951898927336209 3.344000000000000
-0.425204562529882 0.961925631567119 3.347000000000000
-0.426856089064955 0.974870178631134 3.360000000000000
-0.426983129567653 0.984371414633612 3.361000000000000
-0.427618332081142 0.995060616192455 3.366000000000000
-0.426983129567653 1.002793606770334 3.361000000000000
-0.429396899118913 1.017725645818146 3.380000000000000
-0.434224438221433 1.038534841018839 3.418000000000000
-0.436130045761902 1.052500901651475 3.433000000000000
-0.435621883751110 1.117056757453013 3.429000000000000
-0.445785123966942 1.152734859654796 3.509000000000000
-0.442863192404890 1.154732842586452 3.486000000000000
-0.441846868383307 1.161614597435911 3.478000000000000
-0.440322382350932 1.167105583661746 3.466000000000000
-0.441211665869818 1.178980733708610 3.473000000000000
-0.439433098832047 1.183707821072883 3.459000000000000
-0.452391230107233 1.257650192114797 3.561000000000000
-0.451247865582952 1.264206179464271 3.552000000000000
-0.451120825080254 1.273582072208854 3.551000000000000
-0.450485622566765 1.281506903526033 3.546000000000000
-0.451120825080254 1.293045685501773 3.551000000000000
-0.451756027593744 1.304611873297413 3.556000000000000
-0.452010108599139 1.315096616477475 3.558000000000000
-0.450993784577556 1.321868748047335 3.550000000000000
-0.450104501058671 1.328972128281162 3.543000000000000
-0.451247865582952 1.342082557291866 3.552000000000000
-0.452645311112629 1.356003475057963 3.563000000000000
-0.454677959155795 1.371901284236720 3.579000000000000
-0.456583566696264 1.387500731735391 3.594000000000000
-0.457726931220545 1.400849591379225 3.603000000000000
-0.455567242674681 1.404067703337480 3.586000000000000
-0.454423878150400 1.410346891905965 3.577000000000000
-0.453661635134212 1.417767817893808 3.571000000000000
-0.454550918653098 1.430352778676080 3.578000000000000
-0.451120825080254 1.429290978552205 3.551000000000000
-0.417179154429342 -0.470281106975877 3.356000000000000
-0.420908407895636 -0.465205439507134 3.386000000000000
-0.421778567037771 -0.456868380809349 3.393000000000000
-0.421902875486647 -0.447701495809650 3.394000000000000
-0.418795164264736 -0.435170732776813 3.369000000000000
-0.415811761491701 -0.422903427371837 3.345000000000000
-0.410590806638891 -0.408541286867679 3.303000000000000
-0.407980329212486 -0.396949249902709 3.282000000000000
-0.406612936274845 -0.386654385205242 3.271000000000000
-0.405742777132710 -0.376881678113164 3.264000000000000
-0.404624001092822 -0.366921887932121 3.255000000000000
-0.404499692643945 -0.357891308518277 3.254000000000000
-0.405121234888327 -0.349509676995007 3.259000000000000
-0.404499692643945 -0.340055600927413 3.254000000000000
-0.403505225052934 -0.330323640808362 3.246000000000000
-0.403007991257428 -0.321031620835001 3.242000000000000
-0.402386449013046 -0.311665243391087 3.237000000000000
-0.402386449013046 -0.302793979489484 3.237000000000000
-0.403505225052934 -0.294739924250314 3.246000000000000
-0.406612936274845 -0.288045504623362 3.271000000000000
-0.405618468683833 -0.278398502546001 3.263000000000000
-0.400646130728775 -0.266152814851762 3.223000000000000
-0.398781503995629 -0.256122339580033 3.208000000000000
-0.397911344853494 -0.238018263238381 3.201000000000000
-0.398159961751247 -0.062605295900638 3.203000000000000
-0.399030120893382 -0.053944848528033 3.210000000000000
-0.400148896933270 -0.045274162341115 3.219000000000000
-0.399775971586640 -0.036418256660985 3.216000000000000
-0.399278737791135 -0.027570210970002 3.212000000000000
-0.399403046240011 -0.018773304538952 3.213000000000000
-0.399527354688887 -0.009970916943922 3.214000000000000
-0.400397513831022 -0.001165218725849 3.221000000000000
-0.400770439177652 0.007669332339416 3.224000000000000
-0.401391981422034 0.016530565710934 3.229000000000000
-0.401143364524281 0.025364184978322 3.227000000000000
-0.401640598319787 0.034250445344573 3.231000000000000
-0.402013523666416 0.043145289213617 3.234000000000000
-0.402386449013046 0.052056576574601 3.237000000000000
-0.401391981422034 0.060777261939345 3.229000000000000
-0.401391981422034 0.069626601185028 3.229000000000000
-0.400894747626528 0.078378726506361 3.225000000000000
-0.398905812444505 0.086784398414847 3.209000000000000
-0.401143364524281 0.131490481958749 3.227000000000000
-0.403629533501810 0.141204091140795 3.247000000000000
-0.404996926439451 0.150611270369376 3.258000000000000
-0.405121234888327 0.159589055211765 3.259000000000000
-0.405245543337204 0.168572321218134 3.260000000000000
-0.404748309541698 0.177288818973597 3.256000000000000
-0.404375384195069 0.186040582538108 3.253000000000000
-0.404002458848439 0.194775902610678 3.250000000000000
-0.403753841950687 0.203557450820256 3.248000000000000
-0.404748309541698 0.212982158811245 3.256000000000000
-0.405121234888327 0.222109952149438 3.259000000000000
-0.405867085581586 0.231466869104323 3.265000000000000
-0.404748309541698 0.239752163689481 3.256000000000000
-0.404251075746192 0.248370000493305 3.252000000000000
-0.403878150399563 0.257045027762095 3.249000000000000
-0.403878150399563 0.265949178647578 3.249000000000000
-0.403505225052934 0.274599540678458 3.246000000000000
-0.404126767297316 0.283932154152256 3.251000000000000
-0.404251075746192 0.292931863650565 3.252000000000000
-0.404126767297316 0.301751418251180 3.251000000000000
-0.403629533501810 0.310278815849334 3.247000000000000
-0.403505225052934 0.319079186376019 3.246000000000000
-0.403256608155181 0.327773035961917 3.244000000000000
-0.403132299706304 0.336559703578652 3.243000000000000
-0.403007991257428 0.345340890031407 3.242000000000000
-0.403629533501810 0.354772164456844 3.247000000000000
-0.404002458848439 0.364006840492647 3.250000000000000
-0.403878150399563 0.372798989273362 3.249000000000000
-0.402759374359675 0.380645790740122 3.240000000000000
-0.400397513831022 0.387241023223692 3.221000000000000
-0.399775971586640 0.421894750689256 3.216000000000000
-0.404002458848439 0.435261972232423 3.250000000000000
-0.405618468683833 0.445945539154695 3.263000000000000
-0.406488627825968 0.455863913660705 3.270000000000000
-0.407483095416980 0.465962804821232 3.278000000000000
-0.407731712314733 0.475236210761717 3.280000000000000
-0.408104637661362 0.484668208700800 3.283000000000000
-0.408353254559115 0.493966279879195 3.285000000000000
-0.408850488354621 0.503581535054784 3.289000000000000
-0.409720647496756 0.513686269136114 3.296000000000000
-0.409844955945632 0.522877819373722 3.297000000000000
-0.409472030599003 0.531429520452963 3.294000000000000
-0.408726179905744 0.539472558552534 3.288000000000000
-0.409347722150126 0.549317660858460 3.293000000000000
-0.409969264394509 0.559190168984285 3.298000000000000
-0.410839423536644 0.569434672747105 3.305000000000000
-0.411585274229902 0.579542509167247 3.311000000000000
-0.411709582678779 0.588794352208635 3.312000000000000
-0.410590806638891 0.596246509868836 3.303000000000000
-0.411088040434397 0.606031681127804 3.307000000000000
-0.412455433372037 0.617140761772170 3.318000000000000
-0.414320060105184 0.629065088822262 3.333000000000000
-0.415190219247319 0.639539801472241 3.340000000000000
-0.415936069940578 0.649858662705612 3.346000000000000
-0.414692985451813 0.657059048579556 3.336000000000000
-0.414320060105184 0.665602527912827 3.333000000000000
-0.414444368554061 0.674939328995905 3.334000000000000
-0.414817293900690 0.684691975027817 3.337000000000000
-0.414692985451813 0.693629374654001 3.336000000000000
-0.413574209411925 0.700875988664953 3.327000000000000
-0.412082508025408 0.707433061284894 3.315000000000000
-0.407856020763609 0.709169187088570 3.281000000000000
-0.412579741820914 0.762862625587170 3.319000000000000
-0.415065910798443 0.776610371458483 3.339000000000000
-0.415190219247319 0.785996503017381 3.340000000000000
-0.415190219247319 0.795150046863952 3.340000000000000
-0.414817293900690 0.803581162335633 3.337000000000000
-0.414692985451813 0.812482934395948 3.336000000000000
-0.414817293900690 0.821871806536836 3.337000000000000
-0.413822826309678 0.829024879003305 3.329000000000000
-0.414568677002937 0.839658907165526 3.335000000000000
-0.414692985451813 0.849053260470393 3.336000000000000
-0.414941602349566 0.858710347889478 3.338000000000000
-0.412952667167543 0.863698514056445 3.322000000000000
-0.413574209411925 0.874116397998279 3.327000000000000
-0.413574209411925 0.883234314278980 3.327000000000000
-0.413449900963049 0.892084015281485 3.326000000000000
-0.415190219247319 0.904992573022807 3.340000000000000
-0.416184686838331 0.916335688406790 3.348000000000000
-0.416433303736084 0.926064030957614 3.350000000000000
-0.416184686838331 0.934686625411772 3.348000000000000
-0.416060378389454 0.943580175726117 3.347000000000000
-0.416806229082713 0.954460856267437 3.353000000000000
-0.416184686838331 0.962213030919246 3.348000000000000
-0.417552079775972 0.974580038697018 3.359000000000000
-0.417925005122601 0.984664295149718 3.362000000000000
-0.418049313571477 0.994173752898165 3.363000000000000
-0.417925005122601 1.003091968450420 3.362000000000000
-0.419541014957995 1.016220134507764 3.375000000000000
-0.420908407895636 1.028811870008715 3.386000000000000
-0.422027183935524 1.040850731461333 3.395000000000000
-0.432220476743392 1.151751604610755 3.477000000000000
-0.431971859845639 1.160612629698043 3.475000000000000
-0.433587869681033 1.174513639876564 3.488000000000000
-0.433463561232156 1.183733319447718 3.487000000000000
-0.438435899187214 1.255308331917366 3.527000000000000
-0.438062973840585 1.263898401144467 3.524000000000000
-0.437690048493955 1.272472026879628 3.521000000000000
-0.438933132982720 1.285762972544850 3.531000000000000
-0.442165152653507 1.304978749527250 3.557000000000000
-0.443035311795642 1.317314317348432 3.564000000000000
-0.442289461102384 1.324847607197865 3.558000000000000
-0.440424834369237 1.328972128281162 3.543000000000000
-0.441543610409125 1.342082557291866 3.552000000000000
-0.443656854040025 1.358286949896680 3.569000000000000
-0.445148555426542 1.372667923680273 3.581000000000000
-0.444527013182160 1.380551646267601 3.576000000000000
-0.445148555426542 1.392295971892591 3.581000000000000
-0.444029779386654 1.398586122789036 3.572000000000000
-0.444527013182160 1.409952609856229 3.576000000000000
-0.445397172324295 1.422532089474521 3.583000000000000
-0.449623659586094 1.445943544011006 3.617000000000000
-0.450245201830476 1.457868748047335 3.622000000000000
-0.411657673656171 -0.465205439507134 3.386000000000000
-0.412751861211666 -0.457137681358013 3.395000000000000
-0.412387132026501 -0.447437676424966 3.392000000000000
-0.410563486100676 -0.436204085659631 3.377000000000000
-0.404970971928147 -0.421133427974765 3.331000000000000
-0.400107916125948 -0.407057031511212 3.291000000000000
-0.399986339730893 -0.397916828817768 3.290000000000000
-0.401323680076497 -0.390200588677011 3.301000000000000
-0.399013728570453 -0.378960069720406 3.282000000000000
-0.396460624274298 -0.367598241642595 3.261000000000000
-0.396095895089133 -0.358331248663966 3.258000000000000
-0.396217471484188 -0.349509676995007 3.259000000000000
-0.395001707533638 -0.339533081565201 3.249000000000000
-0.393785943583089 -0.329611297775196 3.239000000000000
-0.393907519978144 -0.320833575418076 3.240000000000000
-0.394150672768254 -0.312146654023448 3.242000000000000
-0.393907519978144 -0.303074604122932 3.240000000000000
-0.394150672768254 -0.294376720400344 3.242000000000000
-0.397797964619903 -0.288133565003864 3.272000000000000
-0.398405846595178 -0.279592979725174 3.277000000000000
-0.392083874052319 -0.266317973284807 3.225000000000000
-0.391232839286934 -0.256920725925358 3.218000000000000
-0.390017075336384 -0.247330552556141 3.208000000000000
-0.389773922546274 -0.238390050591144 3.206000000000000
-0.389044464175944 -0.062546658408380 3.200000000000000
-0.389773922546274 -0.053877627532983 3.206000000000000
-0.391354415681989 -0.045274162341115 3.219000000000000
-0.390868110101769 -0.036406932576202 3.215000000000000
-0.390381804521549 -0.027561627467209 3.211000000000000
-0.390017075336384 -0.018744089934939 3.208000000000000
-0.390624957311659 -0.009967814605110 3.213000000000000
-0.391475992077044 -0.001164856969026 3.220000000000000
-0.391962297657264 0.007669332339416 3.224000000000000
-0.391962297657264 0.016504968675148 3.224000000000000
-0.392083874052319 0.025348465000027 3.225000000000000
-0.393056485212759 0.034271646486848 3.233000000000000
-0.393299638002869 0.043158630366745 3.235000000000000
-0.393542790792979 0.052056576574601 3.237000000000000
-0.392813332422649 0.060814906573560 3.231000000000000
-0.392934908817704 0.069691289882319 3.232000000000000
-0.392691756027594 0.078500243911797 3.230000000000000
-0.389895498941329 0.086730310288693 3.207000000000000
-0.392934908817704 0.131694216823885 3.232000000000000
-0.395001707533638 0.141291066250829 3.249000000000000
-0.395974318694078 0.150565042232368 3.257000000000000
-0.395609589508913 0.159344211616779 3.254000000000000
-0.396217471484188 0.168520611917147 3.259000000000000
-0.395731165903968 0.177234369090620 3.255000000000000
-0.395488013113858 0.186040582538108 3.253000000000000
-0.394880131138583 0.194656040516764 3.248000000000000
-0.395123283928693 0.203682794078150 3.250000000000000
-0.395731165903968 0.212916746600308 3.255000000000000
-0.396095895089133 0.222041799356511 3.258000000000000
-0.395974318694078 0.230899722104986 3.257000000000000
-0.395244860323748 0.239383993904946 3.251000000000000
-0.394515401953419 0.247835378721025 3.245000000000000
-0.394150672768254 0.256491221915886 3.242000000000000
-0.394272249163309 0.265458044430315 3.243000000000000
-0.394515401953419 0.274514944393591 3.245000000000000
-0.394758554743529 0.283582806684827 3.247000000000000
-0.394393825558364 0.292211244059788 3.244000000000000
-0.394272249163309 0.301008874004484 3.243000000000000
-0.394150672768254 0.309801022785199 3.242000000000000
-0.394272249163309 0.318784288791568 3.243000000000000
-0.393907519978144 0.327368876854689 3.240000000000000
-0.393907519978144 0.336248362502261 3.240000000000000
-0.394393825558364 0.345553931912981 3.244000000000000
-0.395244860323748 0.355209210547952 3.251000000000000
-0.395244860323748 0.364118842597414 3.251000000000000
-0.394758554743529 0.372569503899848 3.247000000000000
-0.393664367188034 0.380410824202628 3.238000000000000
-0.391597568472099 0.387241023223692 3.221000000000000
-0.391354415681989 0.422288309225347 3.219000000000000
-0.395001707533638 0.435128045471736 3.249000000000000
-0.396582200669353 0.445808871812018 3.262000000000000
-0.397433235434738 0.455724505736038 3.269000000000000
-0.397919541014958 0.465252062287947 3.273000000000000
-0.398405846595178 0.474801543495777 3.277000000000000
-0.398892152175398 0.484372949359526 3.281000000000000
-0.399378457755618 0.493966279879195 3.285000000000000
-0.399500034150673 0.503122202550934 3.286000000000000
-0.400351068916058 0.513218714886293 3.293000000000000
-0.400715798101223 0.522719227375125 3.296000000000000
-0.400229492521003 0.531106855291790 3.292000000000000
-0.399864763335838 0.539636631715111 3.289000000000000
-0.399986339730893 0.548817219624759 3.290000000000000
-0.400594221706168 0.558681506004615 3.295000000000000
-0.401323680076497 0.568745493112917 3.301000000000000
-0.402539444027047 0.579542509167247 3.311000000000000
-0.402296291236937 0.588261023991055 3.309000000000000
-0.401323680076497 0.595885476559802 3.301000000000000
-0.401566832866607 0.605298652181777 3.303000000000000
-0.402904173212212 0.616396770498183 3.314000000000000
-0.404119937162762 0.627366443217882 3.324000000000000
-0.405335701113312 0.638390927577380 3.334000000000000
-0.405092548323202 0.647139588803078 3.332000000000000
-0.404484666347927 0.655286407261446 3.327000000000000
-0.404484666347927 0.664404323542147 3.327000000000000
-0.405214124718257 0.674736887685469 3.333000000000000
-0.405822006693532 0.684897156920244 3.338000000000000
-0.405214124718257 0.693005607230751 3.333000000000000
-0.404727819138037 0.701297314777766 3.329000000000000
-0.403512055187487 0.708286675838481 3.319000000000000
-0.398162693805068 0.707872321766250 3.275000000000000
-0.403876784372652 0.763552166978179 3.322000000000000
-0.405700430298477 0.776145196033830 3.337000000000000
-0.405578853903422 0.785055189840114 3.336000000000000
-0.405214124718257 0.793483564729806 3.333000000000000
-0.404970971928147 0.802136305585854 3.331000000000000
-0.404849395533092 0.811021634154229 3.330000000000000
-0.404606242742982 0.819655190936347 3.328000000000000
-0.404241513557817 0.828028754186239 3.325000000000000
-0.405092548323202 0.838903591806756 3.332000000000000
-0.404727819138037 0.847271673892668 3.329000000000000
-0.403268902397377 0.853308035934511 3.317000000000000
-0.403268902397377 0.862398546395313 3.317000000000000
-0.404484666347927 0.874116397998279 3.327000000000000
-0.404970971928147 0.884296213063806 3.331000000000000
-0.404727819138037 0.892888661116075 3.329000000000000
-0.405578853903422 0.903908749582061 3.336000000000000
-0.406065159483642 0.914146116869378 3.340000000000000
-0.406673041458917 0.924681845836782 3.345000000000000
-0.406551465063862 0.933569914987146 3.344000000000000
-0.407402499829247 0.944707848478703 3.351000000000000
-0.407645652619357 0.954460856267437 3.353000000000000
-0.407645652619357 0.963650027679878 3.353000000000000
-0.407159347039137 0.971678639355854 3.349000000000000
-0.408375110989687 0.983785653601399 3.359000000000000
-0.408375110989687 0.992991268505780 3.359000000000000
-0.408375110989687 1.002196883410161 3.359000000000000
-0.408496687384741 1.011703600576619 3.360000000000000
-0.408861416569906 1.021823484595189 3.363000000000000
-0.409226145755071 1.031959812105699 3.366000000000000
-0.421383785260570 1.148107869307126 3.466000000000000
-0.422842702001229 1.161614597435911 3.478000000000000
-0.425152653507274 1.177544208328080 3.497000000000000
-0.427584181408374 1.193917431745805 3.517000000000000
-0.428070486988594 1.204924902572310 3.521000000000000
-0.420532750495185 1.193187494176263 3.459000000000000
-0.423936889556724 1.241071775842318 3.487000000000000
-0.428313639778704 1.263539746660601 3.523000000000000
-0.430380438494638 1.279338533130896 3.540000000000000
-0.429043098149034 1.285034701249157 3.529000000000000
-0.431717778840243 1.302777492148233 3.551000000000000
-0.432933542790793 1.316205466912954 3.561000000000000
-0.433055119185848 1.326337036773129 3.562000000000000
-0.431596202445188 1.331597814111805 3.550000000000000
-0.433419848371013 1.346994458543216 3.565000000000000
-0.435729799877058 1.363995636993472 3.584000000000000
-0.433541424766068 1.366918127853631 3.566000000000000
-0.432811966395738 1.374374681407343 3.560000000000000
-0.431474626050133 1.379854343548396 3.549000000000000
-0.430502014889693 1.386448337288907 3.541000000000000
-0.435972952667168 1.413895430353590 3.586000000000000
-0.438404480568267 1.431663610004220 3.606000000000000
-0.402288095075473 -0.465068048650812 3.385000000000000
-0.403476538487808 -0.457137681358013 3.395000000000000
-0.403714227170275 -0.448097224886677 3.397000000000000
-0.400861962980671 -0.435687409218222 3.373000000000000
-0.396345878013797 -0.421639142088214 3.335000000000000
-0.393137080800492 -0.409159726599541 3.308000000000000
-0.393255925141725 -0.400214828741031 3.309000000000000
-0.394800901577761 -0.392682931107250 3.322000000000000
-0.390997882658288 -0.379883799323624 3.290000000000000
-0.388145618468684 -0.368161869734657 3.266000000000000
-0.386957175056349 -0.358111278591122 3.256000000000000
-0.387194863738816 -0.349402432540574 3.258000000000000
-0.385887575985247 -0.339324073820316 3.247000000000000
-0.385412198620313 -0.330018350937005 3.243000000000000
-0.385174509937846 -0.320932598126538 3.241000000000000
-0.385293354279079 -0.312146654023448 3.242000000000000
-0.384817976914145 -0.302887521033967 3.238000000000000
-0.384699132572912 -0.293922715587882 3.237000000000000
-0.386481797691415 -0.286372357393816 3.252000000000000
-0.386957175056349 -0.277801263956414 3.256000000000000
-0.383867222184277 -0.266730869367419 3.230000000000000
-0.382678778771942 -0.257080403194422 3.220000000000000
-0.381846868383307 -0.247716042818853 3.213000000000000
-0.381728024042074 -0.238836195414458 3.212000000000000
-0.380777269312205 -0.229460510954106 3.204000000000000
-0.380420736288505 -0.220473057338456 3.201000000000000
-0.381728024042074 -0.045175709673706 3.212000000000000
-0.382084557065774 -0.036406932576202 3.215000000000000
-0.381609179700840 -0.027561627467209 3.211000000000000
-0.380539580629738 -0.018709032410123 3.202000000000000
-0.381371491018373 -0.009955405249859 3.209000000000000
-0.382441090089475 -0.001164133455381 3.218000000000000
-0.383035311795642 0.007666953514248 3.223000000000000
-0.382322245748241 0.016469132825047 3.217000000000000
-0.382678778771942 0.025309165054291 3.220000000000000
-0.383154156136876 0.034176241346612 3.224000000000000
-0.384342599549211 0.043145289213617 3.234000000000000
-0.384104910866744 0.051976167899015 3.232000000000000
-0.384223755207978 0.060852551207774 3.233000000000000
-0.383986066525511 0.069669726983222 3.231000000000000
-0.383867222184277 0.078500243911797 3.230000000000000
-0.380658424970972 0.086622134036384 3.203000000000000
-0.383035311795642 0.131327494066640 3.223000000000000
-0.385887575985247 0.141204091140795 3.247000000000000
-0.386600642032648 0.150380129684340 3.253000000000000
-0.386957175056349 0.159442149054773 3.256000000000000
-0.386957175056349 0.168365484014185 3.256000000000000
-0.386719486373882 0.177179919207643 3.254000000000000
-0.386244109008948 0.185869011143206 3.250000000000000
-0.386006420326480 0.194656040516764 3.248000000000000
-0.386125264667714 0.203620122449203 3.249000000000000
-0.386481797691415 0.212720509967497 3.252000000000000
-0.386125264667714 0.221428424220167 3.249000000000000
-0.385887575985247 0.230190788355815 3.247000000000000
-0.386125264667714 0.239236725991131 3.249000000000000
-0.385293354279079 0.247606255104334 3.242000000000000
-0.384936821255379 0.256253876553225 3.239000000000000
-0.384817976914145 0.265048765915930 3.238000000000000
-0.385649887302780 0.274514944393591 3.245000000000000
-0.386125264667714 0.283757480418542 3.249000000000000
-0.385887575985247 0.292481476406330 3.247000000000000
-0.385768731644013 0.301287328096995 3.246000000000000
-0.385412198620313 0.309896581398026 3.243000000000000
-0.385055665596612 0.318489391207117 3.240000000000000
-0.384699132572912 0.327065757524268 3.237000000000000
-0.384699132572912 0.335937021425870 3.237000000000000
-0.385412198620313 0.345447410972194 3.243000000000000
-0.386125264667714 0.354990687502398 3.249000000000000
-0.385887575985247 0.363670834178346 3.247000000000000
-0.385412198620313 0.372110533152820 3.243000000000000
-0.384342599549211 0.379940891127640 3.234000000000000
-0.383035311795642 0.387481470925166 3.223000000000000
-0.382084557065774 0.421763564510559 3.215000000000000
-0.386125264667714 0.435128045471736 3.249000000000000
-0.387670241103750 0.445808871812018 3.262000000000000
-0.388026774127450 0.455166874037370 3.265000000000000
-0.388383307151151 0.464541319754663 3.268000000000000
-0.388858684516085 0.474077098052542 3.272000000000000
-0.389571750563486 0.483930060347615 3.278000000000000
-0.389690594904720 0.493064058363434 3.279000000000000
-0.389809439245953 0.502203537543233 3.280000000000000
-0.390047127928420 0.511504349303618 3.282000000000000
-0.390641349634588 0.521291899387754 3.287000000000000
-0.390522505293354 0.530138859808269 3.286000000000000
-0.389571750563486 0.537831826926766 3.278000000000000
-0.389334061881019 0.546481827200824 3.276000000000000
-0.390047127928420 0.556477299759377 3.282000000000000
-0.391354415681989 0.567367133844543 3.293000000000000
-0.392542859094324 0.578142225242952 3.303000000000000
-0.393612458165426 0.588794352208635 3.312000000000000
-0.392899392118025 0.596788059832386 3.306000000000000
-0.393018236459258 0.606031681127804 3.307000000000000
-0.393255925141725 0.615466781405699 3.309000000000000
-0.393137080800492 0.624346628810094 3.308000000000000
-0.392186326070624 0.631880642173172 3.300000000000000
-0.391354415681989 0.639565025788877 3.293000000000000
-0.393731302506659 0.652528965211052 3.313000000000000
-0.394563212895294 0.663006418443021 3.320000000000000
-0.395038590260228 0.672914915891539 3.324000000000000
-0.395632811966396 0.683050519888403 3.329000000000000
-0.395513967625162 0.691965994858668 3.328000000000000
-0.395989344990096 0.701929303946986 3.332000000000000
-0.395395123283929 0.709993904945654 3.327000000000000
-0.392542859094324 0.713924359937076 3.303000000000000
-0.394800901577761 0.763552166978179 3.322000000000000
-0.397177788402432 0.777308134595463 3.342000000000000
-0.396227033672563 0.784584533251481 3.334000000000000
-0.395276278942695 0.791817082595660 3.326000000000000
-0.395632811966396 0.801654686669261 3.329000000000000
-0.395276278942695 0.810047433993083 3.326000000000000
-0.396227033672563 0.821132934670006 3.334000000000000
-0.395038590260228 0.827779722981972 3.324000000000000
-0.396464722355030 0.839910678951782 3.336000000000000
-0.396821255378731 0.849816797575133 3.339000000000000
-0.397177788402432 0.859739359690424 3.342000000000000
-0.396345878013797 0.867078429975389 3.335000000000000
-0.395632811966396 0.874641866226712 3.329000000000000
-0.396108189331330 0.884827162456219 3.333000000000000
-0.395276278942695 0.892084015281485 3.326000000000000
-0.395870500648863 0.902553970281129 3.331000000000000
-0.395395123283929 0.910588063121084 3.327000000000000
-0.396464722355030 0.922193912619284 3.336000000000000
-0.396345878013797 0.931057316531739 3.335000000000000
-0.396940099719964 0.941606748409092 3.340000000000000
-0.396702411037497 0.950190974715390 3.338000000000000
-0.396940099719964 0.959913836102235 3.340000000000000
-0.397415477084899 0.970227939685271 3.344000000000000
-0.397415477084899 0.979392445859803 3.344000000000000
-0.397653165767366 0.989148194230527 3.346000000000000
-0.398603920497234 1.000705075009729 3.354000000000000
-0.398603920497234 1.009896987004160 3.354000000000000
-0.399554675227102 1.021519641751122 3.362000000000000
-0.398128543132300 1.027054477288797 3.350000000000000
-0.413340618810191 1.152082853274721 3.478000000000000
-0.413815996175125 1.162950554419737 3.482000000000000
-0.416549416023496 1.180238046951651 3.505000000000000
-0.417856703777064 1.193577961335869 3.516000000000000
-0.417737859435831 1.202871636620753 3.515000000000000
-0.415598661293627 1.235047099642080 3.497000000000000
-0.421659722696537 1.262782523856766 3.548000000000000
-0.413697151833891 1.248476258338221 3.481000000000000
-0.418094392459532 1.271387841682060 3.518000000000000
-0.420827812307903 1.289404329023311 3.541000000000000
-0.421659722696537 1.301676863458724 3.548000000000000
-0.420352434942968 1.307334663429126 3.537000000000000
-0.421422034014070 1.330097422208580 3.546000000000000
-0.422848166108872 1.344349588638643 3.558000000000000
-0.416192882999795 1.361580701917859 3.502000000000000
-0.422372788743938 1.401278404762035 3.554000000000000
-0.392691756027594 -0.464655876081845 3.382000000000000
-0.393504542039478 -0.456329779712020 3.389000000000000
-0.393504542039478 -0.447041947347939 3.389000000000000
-0.391995082303121 -0.436074916549278 3.376000000000000
-0.388627825968172 -0.423156284428561 3.347000000000000
-0.385376681920634 -0.410520294009636 3.319000000000000
-0.385376681920634 -0.401424302384854 3.319000000000000
-0.384563895908749 -0.391500863283327 3.312000000000000
-0.382009425585684 -0.379883799323624 3.290000000000000
-0.378990506112970 -0.367936418497832 3.264000000000000
-0.378177720101086 -0.358221263627544 3.257000000000000
-0.378061607813674 -0.349187943631710 3.256000000000000
-0.377481046376614 -0.339742089310086 3.251000000000000
-0.377132709514378 -0.330527167389267 3.248000000000000
-0.376552148077317 -0.321130643543463 3.243000000000000
-0.376668260364729 -0.312339218276393 3.244000000000000
-0.376668260364729 -0.303448770300861 3.244000000000000
-0.377132709514378 -0.294921526175299 3.248000000000000
-0.378177720101086 -0.286812659296328 3.257000000000000
-0.379222730687795 -0.278654461941538 3.266000000000000
-0.374694351478724 -0.266483131717852 3.227000000000000
-0.374346014616488 -0.257399757732552 3.224000000000000
-0.373649340892016 -0.248101533081565 3.218000000000000
-0.373533228604604 -0.239207982767221 3.217000000000000
-0.372372105730483 -0.229675361619794 3.207000000000000
-0.372139881155659 -0.220748562564746 3.205000000000000
-0.371907656580835 -0.211832725837659 3.203000000000000
-0.371791544293423 -0.045035063005980 3.202000000000000
-0.372255993443071 -0.036305015813158 3.206000000000000
-0.372604330305307 -0.027544460461624 3.209000000000000
-0.372139881155659 -0.018726561172531 3.205000000000000
-0.372720442592719 -0.009958507588672 3.210000000000000
-0.372720442592719 -0.001161239400799 3.210000000000000
-0.373068779454955 0.007643165262575 3.213000000000000
-0.372372105730483 0.016417938753474 3.207000000000000
-0.373068779454955 0.025254145130260 3.213000000000000
-0.373765453179428 0.034123238490926 3.219000000000000
-0.374578239191312 0.043038559988599 3.226000000000000
-0.374694351478724 0.051895759223429 3.227000000000000
-0.374926576053548 0.060777261939345 3.229000000000000
-0.375158800628372 0.069669726983222 3.231000000000000
-0.374810463766136 0.078451636949623 3.228000000000000
-0.372488218017895 0.086757354351770 3.208000000000000
-0.373997677754252 0.131246000120586 3.221000000000000
-0.376087698927669 0.140856190700657 3.239000000000000
-0.376784372652141 0.150010304588282 3.245000000000000
-0.377132709514378 0.159050399302796 3.248000000000000
-0.378061607813674 0.168365484014185 3.256000000000000
-0.377713270951438 0.177125469324666 3.253000000000000
-0.377481046376614 0.185926201608173 3.251000000000000
-0.377248821801790 0.194715971563721 3.249000000000000
-0.377597158664026 0.203808137336045 3.252000000000000
-0.377481046376614 0.212655097756560 3.251000000000000
-0.376784372652141 0.221155813048459 3.245000000000000
-0.376319923502493 0.229765428106313 3.241000000000000
-0.376668260364729 0.238868556206596 3.244000000000000
-0.375507137490609 0.246995258793157 3.234000000000000
-0.375507137490609 0.255858300948789 3.234000000000000
-0.375158800628372 0.264475775995790 3.231000000000000
-0.376319923502493 0.274176559254123 3.241000000000000
-0.376552148077317 0.283233459217399 3.243000000000000
-0.376319923502493 0.291941011713247 3.241000000000000
-0.376203811215081 0.300730419911972 3.240000000000000
-0.375855474352845 0.309323229721064 3.237000000000000
-0.375855474352845 0.318194493622666 3.237000000000000
-0.375855474352845 0.327065757524268 3.237000000000000
-0.375739362065433 0.335833241067073 3.236000000000000
-0.376436035789905 0.345340890031407 3.242000000000000
-0.376552148077317 0.354335118365736 3.243000000000000
-0.376319923502493 0.362998821549744 3.241000000000000
-0.375971586640257 0.371536819719035 3.238000000000000
-0.375507137490609 0.379940891127640 3.234000000000000
-0.375042688340960 0.388323037880324 3.230000000000000
-0.372720442592719 0.421107633617075 3.210000000000000
-0.376552148077317 0.434324484907615 3.243000000000000
-0.378177720101086 0.445125535098634 3.257000000000000
-0.378758281538146 0.454748650263370 3.262000000000000
-0.379106618400383 0.464114874234692 3.265000000000000
-0.379919404412267 0.474077098052542 3.272000000000000
-0.380267741274503 0.483487171335705 3.275000000000000
-0.380616078136739 0.492913688110807 3.278000000000000
-0.380267741274503 0.501437983370148 3.275000000000000
-0.380151628987091 0.510257537970763 3.274000000000000
-0.380616078136739 0.519864571400382 3.278000000000000
-0.380383853561915 0.528525534002401 3.276000000000000
-0.380267741274503 0.537339607439036 3.275000000000000
-0.380035516699679 0.545981385967124 3.273000000000000
-0.380964414998975 0.556307745432820 3.281000000000000
-0.382241650160508 0.567194838935996 3.292000000000000
-0.383170548459805 0.577617118771342 3.300000000000000
-0.383518885322041 0.587194367555894 3.303000000000000
-0.382938323884981 0.595343926596252 3.298000000000000
-0.383286660747217 0.604932137708764 3.301000000000000
-0.383518885322041 0.614350794494719 3.303000000000000
-0.383867222184277 0.623969152009121 3.306000000000000
-0.382938323884981 0.631497684208218 3.298000000000000
-0.381661088723448 0.638399708402076 3.287000000000000
-0.383518885322041 0.650559363746485 3.303000000000000
-0.384680008196161 0.661608513343894 3.313000000000000
-0.385608906495458 0.672307591960229 3.321000000000000
-0.385725018782870 0.681614246641417 3.322000000000000
-0.386537804794755 0.692173917333085 3.329000000000000
-0.386886141656991 0.701929303946986 3.332000000000000
-0.386886141656991 0.711060923137637 3.332000000000000
-0.381661088723448 0.710466052410890 3.287000000000000
-0.385725018782870 0.772656380348931 3.322000000000000
-0.386653917082167 0.783643220074215 3.330000000000000
-0.385957243357694 0.791340944843047 3.324000000000000
-0.386653917082167 0.801895496127558 3.330000000000000
-0.385957243357694 0.809560333912510 3.324000000000000
-0.386073355645106 0.818916319069518 3.325000000000000
-0.384912232770986 0.825538442143574 3.315000000000000
-0.386653917082167 0.838400048234243 3.330000000000000
-0.392691756027594 0.860760829409733 3.382000000000000
-0.391414520866061 0.867199695247283 3.371000000000000
-0.387466703094051 0.867598417039843 3.337000000000000
-0.386305580219930 0.874116397998279 3.327000000000000
-0.386073355645106 0.882703364886567 3.325000000000000
-0.385841131070282 0.891279369446896 3.323000000000000
-0.386305580219930 0.901470146840383 3.327000000000000
-0.385957243357694 0.909766973794555 3.324000000000000
-0.386653917082167 0.920535290474285 3.330000000000000
-0.386537804794755 0.929382250894800 3.329000000000000
-0.387118366231815 0.939915239280213 3.334000000000000
-0.387118366231815 0.949052339634845 3.334000000000000
-0.387815039956287 0.959913836102235 3.340000000000000
-0.387582815381463 0.968487100080573 3.338000000000000
-0.387931152243699 0.978513804311484 3.341000000000000
-0.388047264531111 0.987965709838141 3.342000000000000
-0.388976162830408 0.999511628289384 3.350000000000000
-0.390253397991940 1.012004702838695 3.361000000000000
-0.391182296291237 1.023646541659587 3.369000000000000
-0.393156205177242 1.038091480626826 3.386000000000000
-0.380267741274503 1.057913156437901 3.275000000000000
-0.403141861894679 1.140580060621674 3.472000000000000
-0.402561300457619 1.148439117971092 3.467000000000000
-0.403606311044328 1.160946618943999 3.476000000000000
-0.406160781367393 1.177880938156027 3.498000000000000
-0.407438016528926 1.191201668466315 3.509000000000000
-0.406509118229629 1.198080682733785 3.501000000000000
-0.401284065296086 1.192152639454514 3.456000000000000
-0.392807868315006 1.176242563430770 3.383000000000000
-0.413359743186941 1.267053490679281 3.560000000000000
-0.405347995355509 1.261630174903943 3.491000000000000
-0.414520866061061 1.309748140515120 3.570000000000000
-0.408250802540810 1.318844482934396 3.516000000000000
-0.398381258110785 1.371587586259818 3.431000000000000
-0.382885048835462 -0.463968921800234 3.377000000000000
-0.384132231404959 -0.456195129437687 3.388000000000000
-0.384699132572912 -0.447569586117308 3.393000000000000
-0.384812512806502 -0.438399960535619 3.394000000000000
-0.381978006966737 -0.425937712052532 3.369000000000000
-0.378009698791066 -0.412375613205220 3.334000000000000
-0.375628713885664 -0.400698618198561 3.313000000000000
-0.376422375520798 -0.392446517542465 3.320000000000000
-0.373928010381805 -0.380807528926843 3.298000000000000
-0.369959702206134 -0.367823692879420 3.263000000000000
-0.368825899870228 -0.357781323481855 3.253000000000000
-0.369052660337409 -0.349080699177277 3.255000000000000
-0.369052660337409 -0.340160104799855 3.255000000000000
-0.368825899870228 -0.331035983841529 3.253000000000000
-0.368032238235093 -0.321427711668850 3.246000000000000
-0.368258998702274 -0.312724346782283 3.248000000000000
-0.368145618468684 -0.303729394934308 3.247000000000000
-0.368145618468684 -0.294830725212806 3.247000000000000
-0.367805477767912 -0.285667874349797 3.244000000000000
-0.367238576599959 -0.276350827381703 3.239000000000000
-0.366785055665597 -0.267143765450031 3.235000000000000
-0.364857591694556 -0.256920725925358 3.218000000000000
-0.364744211460966 -0.248024435029023 3.217000000000000
-0.364630831227375 -0.239133625296668 3.216000000000000
-0.363950549825832 -0.229890212285481 3.210000000000000
-0.364290690526603 -0.221299573017326 3.213000000000000
-0.363610409125060 -0.212097268735989 3.207000000000000
-0.363156888190697 -0.027492959444868 3.203000000000000
-0.363497028891469 -0.018732404093333 3.206000000000000
-0.363610409125060 -0.009949200572234 3.207000000000000
-0.363383648657879 -0.001159430616686 3.205000000000000
-0.363610409125060 0.007628892311571 3.207000000000000
-0.363723789358650 0.016423058160631 3.208000000000000
-0.364404070760194 0.025262005119407 3.214000000000000
-0.364857591694556 0.034112637919789 3.218000000000000
-0.365424492862509 0.042998536529217 3.223000000000000
-0.365651253329691 0.051863595753194 3.225000000000000
-0.365878013796872 0.060739617305131 3.227000000000000
-0.366104774264053 0.069626601185028 3.229000000000000
-0.365651253329691 0.078378726506361 3.225000000000000
-0.363497028891469 0.086703266225616 3.206000000000000
-0.363837169592241 0.130757036444259 3.209000000000000
-0.366331534731234 0.140508290260520 3.231000000000000
-0.367011816132778 0.149640479492225 3.237000000000000
-0.367918858001503 0.158903493145804 3.245000000000000
-0.368258998702274 0.167951809606288 3.248000000000000
-0.368485759169456 0.176962119675734 3.250000000000000
-0.368599139403046 0.185926201608173 3.251000000000000
-0.368825899870228 0.194955695751550 3.253000000000000
-0.368712519636637 0.203808137336045 3.252000000000000
-0.367692097534321 0.212131800069063 3.243000000000000
-0.367238576599959 0.220746896290896 3.239000000000000
-0.367125196366368 0.229552747981561 3.238000000000000
-0.368032238235093 0.239015824120410 3.246000000000000
-0.367125196366368 0.247300756948746 3.238000000000000
-0.367011816132778 0.256095646311451 3.237000000000000
-0.366558295198415 0.264639487401545 3.233000000000000
-0.367351956833550 0.274091962969256 3.240000000000000
-0.367238576599959 0.282884111749971 3.239000000000000
-0.366898435899187 0.291490624469012 3.236000000000000
-0.366671675432006 0.300173511726950 3.234000000000000
-0.366444914964825 0.308845436656928 3.232000000000000
-0.366331534731234 0.317604698453764 3.231000000000000
-0.366898435899187 0.326964717747461 3.236000000000000
-0.367011816132778 0.335937021425870 3.237000000000000
-0.367918858001503 0.345660452853768 3.245000000000000
-0.367692097534321 0.354335118365736 3.243000000000000
-0.367238576599959 0.362774817340210 3.239000000000000
-0.366444914964825 0.370848363598494 3.232000000000000
-0.366444914964825 0.379705924590146 3.232000000000000
-0.365764633563281 0.387842142477376 3.226000000000000
-0.363383648657879 0.420451702723590 3.205000000000000
-0.367011816132778 0.433520924343494 3.237000000000000
-0.368372378935865 0.444032196357218 3.249000000000000
-0.369052660337409 0.453772794790702 3.255000000000000
-0.369959702206134 0.463830577221379 3.263000000000000
-0.370526603374087 0.473497541697955 3.268000000000000
-0.370980124308449 0.483044282323794 3.272000000000000
-0.371093504542039 0.492161836847673 3.273000000000000
-0.370639983607677 0.500519318362447 3.269000000000000
-0.370299842906905 0.509010726637909 3.266000000000000
-0.370753363841268 0.518595835411608 3.270000000000000
-0.371320265009221 0.528364201421814 3.275000000000000
-0.371320265009221 0.537339607439036 3.275000000000000
-0.371660405709993 0.546815454689958 3.278000000000000
-0.371887166177174 0.556138191106263 3.280000000000000
-0.372567447578717 0.566161069484716 3.286000000000000
-0.372907588279489 0.575691728375438 3.289000000000000
-0.373701249914623 0.585949935048207 3.296000000000000
-0.373928010381805 0.595343926596252 3.298000000000000
-0.374041390615395 0.604565623235750 3.299000000000000
-0.374154770848986 0.613792801039229 3.300000000000000
-0.375061812717711 0.624346628810094 3.308000000000000
-0.375288573184892 0.633795431997939 3.310000000000000
-0.374041390615395 0.640730343175677 3.299000000000000
-0.374494911549758 0.650559363746485 3.303000000000000
-0.375515333652073 0.661408812615447 3.312000000000000
-0.376422375520798 0.672105150649792 3.320000000000000
-0.376422375520798 0.681203882856563 3.320000000000000
-0.377442797623113 0.692173917333085 3.329000000000000
-0.377896318557476 0.702139967003393 3.333000000000000
-0.377216037155932 0.709993904945654 3.327000000000000
-0.371093504542039 0.707440033325477 3.273000000000000
-0.369959702206134 0.749991186288320 3.263000000000000
-0.374494911549758 0.768237213814726 3.303000000000000
-0.375855474352845 0.780113295659466 3.315000000000000
-0.376082234820026 0.789674462708901 3.317000000000000
-0.375968854586435 0.798524163711406 3.316000000000000
-0.375401953418482 0.806394183388784 3.311000000000000
-0.375061812717711 0.814729378490816 3.308000000000000
-0.374608291783348 0.822799098896642 3.304000000000000
-0.379823782528516 0.852616433625845 3.350000000000000
-0.378916740659791 0.859739359690424 3.342000000000000
-0.378236459258247 0.867338423507616 3.336000000000000
-0.376875896455160 0.873328195655629 3.324000000000000
-0.376762516221570 0.882172415494154 3.323000000000000
-0.376422375520798 0.890474723612306 3.320000000000000
-0.377216037155932 0.901470146840383 3.327000000000000
-0.377102656922341 0.910314366678908 3.326000000000000
-0.378123079024657 0.921917475595117 3.335000000000000
-0.377896318557476 0.930498961319426 3.333000000000000
-0.378236459258247 0.940479075656506 3.336000000000000
-0.376875896455160 0.946205751933480 3.324000000000000
-0.378576599959019 0.959626436750108 3.339000000000000
-0.380277303462878 0.973129339026436 3.354000000000000
-0.379823782528516 0.981149728956441 3.350000000000000
-0.378916740659791 0.987965709838141 3.342000000000000
-0.379710402294925 0.999213266609297 3.349000000000000
-0.381524486032375 1.013209111887000 3.365000000000000
-0.382885048835462 1.026077284412118 3.377000000000000
-0.383225189536234 1.036251980070488 3.380000000000000
-0.391048425653985 1.142476642019699 3.449000000000000
-0.392295608223482 1.155602791008699 3.460000000000000
-0.395697015231200 1.175187099532457 3.490000000000000
-0.396717437333516 1.187806964366953 3.499000000000000
-0.397284338501468 1.199107315709564 3.504000000000000
-0.397397718735059 1.228266746326250 3.505000000000000
-0.407601939758213 1.269658084990929 3.595000000000000
-0.395016733829657 1.259100409442949 3.484000000000000
-0.402613209480227 1.293045685501773 3.551000000000000
-0.405220954852811 1.311215645434464 3.574000000000000
-0.407942080458985 1.329881288950521 3.598000000000000
-0.405787856020764 1.371901284236720 3.579000000000000
-0.395016733829657 1.373678661280509 3.484000000000000
-0.392749129157844 1.384779772312448 3.464000000000000
-0.404767433918448 1.515209572304775 3.570000000000000
-0.409075882794891 1.541225873286451 3.608000000000000
-0.373658903080391 -0.463968921800234 3.377000000000000
-0.374322792159006 -0.455521878066026 3.383000000000000
-0.374986681237620 -0.447041947347939 3.389000000000000
-0.375429273956697 -0.438270791425267 3.393000000000000
-0.374876033057851 -0.428339854091415 3.388000000000000
-0.370339457687316 -0.413983556508060 3.347000000000000
