# This PCD file was generated using the MATLAB® pcwrite function
# from Computer Vision System Toolbox®.
# .PCD v.7 - Point Cloud Data file format
VERSION .7
FIELDS x y z
SIZE 8 8 8
TYPE F F F
COUNT 1 1 1
WIDTH 859
HEIGHT 1
VIEWPOINT 0 0 0 1 0 0 0
POINTS 859
DATA ascii
-0.365651253329691 0.849667819538157 3.569000000000000
-0.365548801311386 0.859208147202140 3.568000000000000
-0.368110101769005 0.884922205839632 3.593000000000000
-0.316511167269995 -0.784022867416124 3.174000000000000
-0.316810327163445 -0.776057080841688 3.177000000000000
-0.317009767092412 -0.767833317803369 3.179000000000000
-0.309630489720647 -0.732940863721820 3.105000000000000
-0.309929649614097 -0.725131290320812 3.108000000000000
-0.298362133734035 -0.648868260223741 2.992000000000000
-0.304544771531999 -0.653944322336291 3.054000000000000
-0.304644491496483 -0.645785971508910 3.055000000000000
-0.303946451745099 -0.635952971613052 3.048000000000000
-0.303747011816133 -0.627187866895414 3.046000000000000
-0.304145891674066 -0.619652713450228 3.050000000000000
-0.303946451745099 -0.610893089896570 3.048000000000000
-0.303148692029233 -0.600958326710260 3.040000000000000
-0.303048972064750 -0.592432014382574 3.039000000000000
-0.302949252100266 -0.583911183218868 3.038000000000000
-0.302550372242333 -0.574827447476746 3.034000000000000
-0.302350932313367 -0.566139079054828 3.032000000000000
-0.302350932313367 -0.557829634461174 3.032000000000000
-0.302650092206816 -0.550063910372007 3.035000000000000
-0.302350932313367 -0.541210745273866 3.032000000000000
-0.302550372242333 -0.533252818688577 3.034000000000000
-0.302849532135783 -0.525456948197519 3.037000000000000
-0.303647291851650 -0.518496023415533 3.045000000000000
-0.303547571887166 -0.509983413997797 3.044000000000000
-0.303248411993716 -0.501146692391596 3.041000000000000
-0.303248411993716 -0.492812582560032 3.041000000000000
-0.303647291851650 -0.485115734777437 3.045000000000000
-0.304843931425449 -0.478649561780940 3.057000000000000
-0.304544771531999 -0.469810099592750 3.054000000000000
-0.304345331603033 -0.461138174662771 3.052000000000000
-0.303348131958200 -0.451290386586496 3.042000000000000
-0.303447851922683 -0.443099148775234 3.043000000000000
-0.303148692029233 -0.434330941718783 3.040000000000000
-0.303647291851650 -0.426700229660771 3.045000000000000
-0.303647291851650 -0.418355157501247 3.045000000000000
-0.303846731780616 -0.410279385890388 3.047000000000000
-0.303148692029233 -0.401005464720488 3.040000000000000
-0.302350932313367 -0.358402964213480 3.032000000000000
-0.304245611638549 -0.352287377427471 3.051000000000000
-0.304544771531999 -0.344264038631244 3.054000000000000
-0.304544771531999 -0.335894301233810 3.054000000000000
-0.304644491496483 -0.327631808290809 3.055000000000000
-0.304245611638549 -0.318841314821616 3.051000000000000
-0.304445051567516 -0.310683325751057 3.053000000000000
-0.304744211460966 -0.302613397061000 3.056000000000000
-0.305043371354416 -0.294527024879003 3.059000000000000
-0.304843931425449 -0.285956501482655 3.057000000000000
-0.305442251212349 -0.278123348114206 3.063000000000000
-0.305841131070282 -0.270081187000872 3.067000000000000
-0.305841131070282 -0.261675822037568 3.067000000000000
-0.306040570999249 -0.253435615507309 3.069000000000000
-0.306738610750632 -0.245583639821753 3.076000000000000
-0.307536370466498 -0.237770394040879 3.084000000000000
-0.307636090430982 -0.229392796654298 3.085000000000000
-0.307436650502015 -0.220794867438049 3.083000000000000
-0.307835530359948 -0.212621158389196 3.087000000000000
-0.308234410217881 -0.204425524684422 3.091000000000000
-0.308733010040298 -0.196271361466321 3.096000000000000
-0.308633290075815 -0.187725865064705 3.095000000000000
-0.308733010040298 -0.179301677784294 3.096000000000000
-0.308832730004781 -0.170872009339903 3.097000000000000
-0.308832730004781 -0.162384426916900 3.097000000000000
-0.309231609862714 -0.154095613424467 3.101000000000000
-0.309730209685131 -0.145831826926766 3.106000000000000
-0.310328529472031 -0.137584845677828 3.112000000000000
-0.310129089543064 -0.128973213551630 3.110000000000000
-0.310328529472031 -0.120527463372122 3.112000000000000
-0.310228809507547 -0.111962782896576 3.111000000000000
-0.310328529472031 -0.103470081066415 3.112000000000000
-0.316012567447579 -0.009831311697352 3.169000000000000
-0.316810327163445 -0.001149301425651 3.177000000000000
-0.317508366914828 0.007574179332723 3.184000000000000
-0.317508366914828 0.016300192388856 3.184000000000000
-0.317907246772761 0.025057645401577 3.188000000000000
-0.318505566559661 0.033858224212494 3.194000000000000
-0.319801926097944 0.042785078079181 3.207000000000000
-0.319901646062427 0.051590206256201 3.208000000000000
-0.318405846595178 0.060099658523484 3.193000000000000
-0.317807526808278 0.068720959422943 3.187000000000000
-0.319004166382078 0.077746835998093 3.199000000000000
-0.322394645174510 0.087433455928701 3.233000000000000
-0.323990164606243 0.096770311823419 3.249000000000000
-0.324289324499693 0.105772038390072 3.252000000000000
-0.323790724677276 0.114508081976288 3.247000000000000
-0.322394645174510 0.122874662223270 3.233000000000000
-0.321596885458644 0.131408988012694 3.225000000000000
-0.322294925210027 0.140551777815537 3.232000000000000
-0.322793525032443 0.149640479492225 3.237000000000000
-0.323691004712793 0.158952461864802 3.246000000000000
-0.324389044464176 0.168210356111224 3.253000000000000
-0.325485964073492 0.177724418037414 3.264000000000000
-0.325785123966942 0.186841249047648 3.267000000000000
-0.324887644286592 0.195255350986335 3.258000000000000
-0.324787924322109 0.204121495480780 3.257000000000000
-0.325984563895909 0.321340067856810 3.269000000000000
-0.335757120415272 0.377111086750382 3.367000000000000
-0.336156000273205 0.386797597057711 3.371000000000000
-0.336355440202172 0.396271065483466 3.373000000000000
-0.337252919882522 0.406597063192339 3.382000000000000
-0.337851239669421 0.416603498078852 3.388000000000000
-0.338150399562871 0.426265704905094 3.391000000000000
-0.338449559456321 0.435944355223275 3.394000000000000
-0.337452359811488 0.443934028710337 3.384000000000000
-0.338050679598388 0.454011718728589 3.390000000000000
-0.338748719349771 0.464258963073398 3.397000000000000
-0.339945358923571 0.475241615189402 3.409000000000000
-0.340244518817021 0.485010704713253 3.412000000000000
-0.340543678710471 0.494796237729044 3.415000000000000
-0.340743118639437 0.504450584566138 3.417000000000000
-0.340842838603921 0.513965523478566 3.418000000000000
-0.341640598319787 0.524557719397291 3.426000000000000
-0.342837237893587 0.535817170294284 3.438000000000000
-0.343036677822553 0.545556475173068 3.440000000000000
-0.342637797964620 0.554338746896291 3.436000000000000
-0.342238918106687 0.563099093963594 3.432000000000000
-0.342139198142203 0.572337957608678 3.431000000000000
-0.343036677822553 0.583266883355349 3.440000000000000
-0.343036677822553 0.592694485400920 3.440000000000000
-0.346327436650502 0.665006506141644 3.473000000000000
-0.347025476401885 0.675884084344151 3.480000000000000
-0.348022676046718 0.687390911133888 3.490000000000000
-0.349219315620518 0.699351951020319 3.502000000000000
-0.349717915442934 0.709961675701452 3.507000000000000
-0.351911754661567 0.724086898373739 3.529000000000000
-0.353806433986750 0.737708939230335 3.548000000000000
-0.352310634519500 0.744272578284724 3.533000000000000
-0.353606994057783 0.756729301754521 3.546000000000000
-0.354903353596066 0.769257280356056 3.559000000000000
-0.355800833276416 0.780980974879825 3.568000000000000
-0.356498873027799 0.792310749110681 3.575000000000000
-0.355302233453999 0.799415938128621 3.563000000000000
-0.354005873915716 0.806228246630454 3.550000000000000
-0.353407554128816 0.814578229912904 3.544000000000000
-0.353407554128816 0.824290852485434 3.544000000000000
-0.354205313844683 0.835886101412496 3.552000000000000
-0.355601393347449 0.848953612909237 3.566000000000000
-0.356199713134349 0.860171385035326 3.572000000000000
-0.355900553240899 0.869230093782716 3.569000000000000
-0.356498873027799 0.880488974638654 3.575000000000000
-0.357196912779182 0.892029773682739 3.582000000000000
-0.310264326207226 -0.798965342600155 3.199000000000000
-0.309973362475241 -0.789457178406407 3.196000000000000
-0.309003483368622 -0.778255542827075 3.186000000000000
-0.310943241581859 -0.774354708045801 3.206000000000000
-0.306190833959429 -0.745215557735841 3.157000000000000
-0.302020353800970 -0.726531157676644 3.114000000000000
-0.295716139607950 -0.652873686576081 3.049000000000000
-0.296007103339936 -0.645151811798754 3.052000000000000
-0.295231200054641 -0.635118387660804 3.044000000000000
-0.294940236322656 -0.626158339865054 3.041000000000000
-0.294843248411994 -0.617621065209408 3.040000000000000
-0.294746260501332 -0.609089271717742 3.039000000000000
-0.294552284680008 -0.600365275729954 3.037000000000000
-0.294358308858685 -0.591652242070126 3.035000000000000
-0.294261320948023 -0.583142373234380 3.034000000000000
-0.293679393484052 -0.573690675991954 3.028000000000000
-0.293582405573390 -0.565205472394118 3.027000000000000
-0.293194453930742 -0.556173807709805 3.023000000000000
-0.293194453930742 -0.547889028354061 3.023000000000000
-0.293291441841404 -0.539782748584489 3.024000000000000
-0.293679393484052 -0.532198264663484 3.028000000000000
-0.294164333037361 -0.524764874508751 3.033000000000000
-0.294358308858685 -0.516793245013511 3.035000000000000
-0.294746260501332 -0.509145727706736 3.039000000000000
-0.294649272590670 -0.500652302362930 3.038000000000000
-0.294455296769346 -0.492002302088872 3.036000000000000
-0.294552284680008 -0.483841210679500 3.037000000000000
-0.294940236322656 -0.476144362896905 3.041000000000000
-0.295716139607950 -0.469040927851438 3.049000000000000
-0.295813127518612 -0.460835987130227 3.050000000000000
-0.295425175875965 -0.451883799323624 3.046000000000000
-0.294940236322656 -0.442807923570650 3.041000000000000
-0.294940236322656 -0.434473813739086 3.041000000000000
-0.295425175875965 -0.426840361099083 3.046000000000000
-0.296007103339936 -0.419316893495503 3.052000000000000
-0.295910115429274 -0.410817986987717 3.051000000000000
-0.295037224233317 -0.401269284105173 3.042000000000000
-0.293097466020081 -0.357220896389557 3.022000000000000
-0.295425175875965 -0.351710046425459 3.046000000000000
-0.295716139607950 -0.343700410539182 3.049000000000000
-0.296104091250598 -0.335784316197388 3.053000000000000
-0.296298067071921 -0.327631808290809 3.055000000000000
-0.296395054982583 -0.319363834183827 3.056000000000000
-0.296007103339936 -0.310581562460604 3.052000000000000
-0.295910115429274 -0.302118283518688 3.051000000000000
-0.295910115429274 -0.293756767867224 3.051000000000000
-0.296104091250598 -0.285582335304725 3.053000000000000
-0.296589030803907 -0.277669343301744 3.058000000000000
-0.296976982446554 -0.269640885098360 3.062000000000000
-0.297073970357216 -0.261334542843518 3.063000000000000
-0.297558909910525 -0.253353036290787 3.068000000000000
-0.298140837374496 -0.245423962552688 3.074000000000000
-0.298819752749129 -0.237539099883251 3.081000000000000
-0.299110716481115 -0.229318439183745 3.084000000000000
-0.299110716481115 -0.220866484326612 3.084000000000000
-0.299401680213100 -0.212621158389196 3.087000000000000
-0.299595656034424 -0.204293253235257 3.089000000000000
-0.300177583498395 -0.196207966323729 3.095000000000000
-0.299983607677071 -0.187604555943500 3.093000000000000
-0.299983607677071 -0.179127935848457 3.093000000000000
-0.300371559319719 -0.170872009339903 3.097000000000000
-0.300468547230380 -0.162436859731533 3.098000000000000
-0.300953486783690 -0.154194997889752 3.103000000000000
-0.301050474694352 -0.145737923625461 3.104000000000000
-0.301632402158323 -0.137496423540503 3.110000000000000
-0.301341438426337 -0.128848802091612 3.107000000000000
-0.301729390068984 -0.120488733467439 3.111000000000000
-0.301632402158323 -0.111926793573883 3.110000000000000
-0.302117341711632 -0.103569827288523 3.115000000000000
-0.287375179291032 -0.049793952083665 2.963000000000000
-0.302505293354279 -0.035319820437068 3.119000000000000
-0.305220954852811 -0.009763060243473 3.147000000000000
-0.308324567993990 -0.001150024939296 3.179000000000000
-0.308712519636637 0.007571800507556 3.183000000000000
-0.309100471279284 0.016315550610328 3.187000000000000
-0.309003483368622 0.025041925423283 3.186000000000000
-0.309488422921932 0.033826422499082 3.191000000000000
-0.310264326207226 0.042678348854163 3.199000000000000
-0.313173963527082 0.051927922693663 3.229000000000000
-0.310167338296564 0.060193770109020 3.198000000000000
-0.311137217403183 0.069173780303985 3.208000000000000
-0.310943241581859 0.077916960365703 3.206000000000000
-0.309100471279284 0.086189429027148 3.187000000000000
-0.312786011884434 0.096055480341805 3.225000000000000
-0.315307697561642 0.114649145212477 3.251000000000000
-0.313270951437743 0.122760643050158 3.230000000000000
-0.312107096509801 0.131123759201504 3.218000000000000
-0.312689023973772 0.140203877375399 3.224000000000000
-0.312689023973772 0.149039513711132 3.224000000000000
-0.313367939348405 0.158217931079844 3.231000000000000
-0.314240830544362 0.167538135198391 3.240000000000000
-0.314919745918995 0.176798770026803 3.247000000000000
-0.314143842633700 0.185239916028568 3.239000000000000
-0.312301072331125 0.192977971201964 3.220000000000000
-0.312592036063110 0.201990660096578 3.223000000000000
-0.312689023973772 0.210888968061257 3.224000000000000
-0.324036609521208 0.365042747597880 3.341000000000000
-0.324133597431869 0.374311034131208 3.342000000000000
-0.326461307287754 0.386223883623926 3.366000000000000
-0.326946246841063 0.396036098945972 3.371000000000000
-0.328013113858343 0.406597063192339 3.382000000000000
-0.328982992964961 0.417095355809760 3.392000000000000
-0.329079980875623 0.426517114934527 3.393000000000000
-0.329079980875623 0.435815909626568 3.393000000000000
-0.327916125947681 0.443540470174246 3.381000000000000
-0.328498053411652 0.453609938446528 3.387000000000000
-0.328886005054300 0.463438959017337 3.391000000000000
-0.330922751178198 0.475659838963402 3.412000000000000
-0.330631787446213 0.484584259193282 3.409000000000000
-0.330922751178198 0.494361570463103 3.412000000000000
-0.331019739088860 0.503860065883591 3.413000000000000
-0.332280581927464 0.515168485499581 3.426000000000000
-0.332765521480773 0.525323273570375 3.431000000000000
-0.331989618195479 0.533479399045181 3.423000000000000
-0.331310702820846 0.541750267206744 3.416000000000000
-0.330825763267536 0.550305432381620 3.411000000000000
-0.331698654463493 0.561130216012672 3.420000000000000
-0.332571545659450 0.572004330119544 3.429000000000000
-0.332668533570111 0.581571340089781 3.430000000000000
-0.332280581927464 0.590282356681265 3.426000000000000
-0.336354074175261 0.664049111229260 3.468000000000000
-0.337808892835189 0.676466743037551 3.483000000000000
-0.338099856567174 0.686603070548062 3.486000000000000
-0.338875759852469 0.697754345192745 3.494000000000000
-0.339166723584455 0.707937262597085 3.497000000000000
-0.340427566423059 0.720188442417632 3.510000000000000
-0.341591421351001 0.732302954895501 3.522000000000000
-0.342076360904310 0.743008599946284 3.527000000000000
-0.341979372993648 0.752461228986588 3.526000000000000
-0.344016119117547 0.766663549711417 3.547000000000000
-0.344792022402841 0.778135472448929 3.555000000000000
-0.344792022402841 0.787878241423349 3.555000000000000
-0.344307082849532 0.796499180565985 3.550000000000000
-0.344792022402841 0.807363779372187 3.555000000000000
-0.343919131206885 0.815037924173578 3.546000000000000
-0.342852264189605 0.822197563074494 3.535000000000000
-0.343143227921590 0.832591505292064 3.538000000000000
-0.344985998224165 0.846810993022478 3.557000000000000
-0.345664913598798 0.858244909368953 3.564000000000000
-0.345567925688136 0.867768793540996 3.563000000000000
-0.345470937777474 0.877287196549059 3.562000000000000
-0.347895635544020 0.893274929704072 3.587000000000000
-0.301901509459736 -0.791186277357860 3.203000000000000
-0.301995765316577 -0.782652466797849 3.204000000000000
-0.300487671607131 -0.761270139166754 3.188000000000000
-0.298602554470323 -0.747812127623422 3.168000000000000
-0.296623181476675 -0.734230428133719 3.147000000000000
-0.282767570521139 -0.650603202095997 3.000000000000000
-0.286726316508435 -0.651374796511787 3.042000000000000
-0.286914828222116 -0.643460719238337 3.044000000000000
-0.286066525510553 -0.633240573768246 3.035000000000000
-0.286255037224233 -0.625334718240766 3.037000000000000
-0.286160781367393 -0.616808405913080 3.036000000000000
-0.286349293081074 -0.608888847475650 3.038000000000000
-0.285783757940031 -0.599376857429444 3.032000000000000
-0.285406734512670 -0.590287640523341 3.028000000000000
-0.285218222798989 -0.581604753265404 3.026000000000000
-0.284746943514787 -0.572364442593029 3.021000000000000
-0.284935455228468 -0.564458587065549 3.023000000000000
-0.284746943514787 -0.555805846209501 3.021000000000000
-0.284935455228468 -0.547889028354061 3.023000000000000
-0.285218222798989 -0.540139747756834 3.026000000000000
-0.285689502083191 -0.532725541676030 3.031000000000000
-0.286160781367393 -0.525283929775327 3.036000000000000
-0.285972269653712 -0.516622967173309 3.034000000000000
-0.285972269653712 -0.508308041415675 3.034000000000000
-0.286066525510553 -0.500157912334263 3.035000000000000
-0.286255037224233 -0.492164358183104 3.037000000000000
-0.286160781367393 -0.483681895167258 3.036000000000000
-0.285783757940031 -0.474735188524635 3.032000000000000
-0.285783757940031 -0.466425743930981 3.032000000000000
-0.286537804794754 -0.459325049467505 3.040000000000000
-0.286820572365276 -0.451438739770778 3.043000000000000
-0.286443548937914 -0.442516698366065 3.039000000000000
-0.286160781367393 -0.433759453637575 3.036000000000000
-0.286443548937914 -0.425859441030897 3.039000000000000
-0.287386107506318 -0.418904720926536 3.049000000000000
-0.287763130933679 -0.411087287536381 3.053000000000000
-0.287009084078956 -0.401665013182199 3.045000000000000
-0.280222662386449 -0.384019765077312 2.973000000000000
-0.283804384946383 -0.355920621783242 3.011000000000000
-0.286066525510553 -0.350439918221033 3.035000000000000
-0.286820572365276 -0.343024056828708 3.043000000000000
-0.287291851649478 -0.335234391015276 3.048000000000000
-0.287574619219999 -0.327202830473079 3.051000000000000
-0.288045898504201 -0.319363834183827 3.056000000000000
-0.287668875076839 -0.310581562460604 3.052000000000000
-0.287763130933679 -0.302316328935613 3.053000000000000
-0.287386107506318 -0.293564203614280 3.049000000000000
-0.287668875076839 -0.285488793760243 3.052000000000000
-0.287668875076839 -0.277124537526789 3.052000000000000
-0.288045898504201 -0.269112522815345 3.056000000000000
-0.287951642647360 -0.260651984455419 3.055000000000000
-0.288611433645243 -0.252857560991652 3.062000000000000
-0.289082712929445 -0.244865092110961 3.067000000000000
-0.290119527354689 -0.237307805725624 3.078000000000000
-0.290590806638891 -0.229244081713193 3.083000000000000
-0.290496550782050 -0.220723250549487 3.082000000000000
-0.290402294925210 -0.212207900549761 3.081000000000000
-0.290402294925210 -0.203764167438597 3.081000000000000
-0.291062085923093 -0.195764200325581 3.088000000000000
-0.291062085923093 -0.187301283140488 3.088000000000000
-0.291344853493614 -0.179012107891232 3.091000000000000
-0.291533365207295 -0.170651315753413 3.093000000000000
-0.291816132777816 -0.162331994102268 3.096000000000000
-0.292004644491496 -0.153946536726539 3.098000000000000
-0.292004644491496 -0.145456213721546 3.098000000000000
-0.292664435489379 -0.137275368197190 3.105000000000000
-0.292758691346220 -0.128807331604940 3.106000000000000
-0.293324226487262 -0.120527463372122 3.112000000000000
-0.293606994057783 -0.112106740187346 3.115000000000000
-0.293984017485144 -0.103702822251333 3.119000000000000
-0.300204904036610 -0.036067210032723 3.185000000000000
-0.304634929308107 -0.010026759042550 3.232000000000000
-0.299733624752408 -0.001150386696119 3.180000000000000
-0.299639368895567 0.007562285206886 3.179000000000000
-0.300110648179769 0.016300192388856 3.184000000000000
-0.299639368895567 0.024986905499252 3.179000000000000
-0.300110648179769 0.033752218501121 3.184000000000000
-0.297282972474558 0.042077996963435 3.154000000000000
-0.299073833754525 0.051027345527096 3.173000000000000
-0.307745372583840 0.070402865552529 3.265000000000000
-0.301335974318694 0.086459869657921 3.197000000000000
-0.307274093299638 0.106032240206530 3.260000000000000
-0.305577487876511 0.114331752931052 3.242000000000000
-0.304917696878629 0.122950675005344 3.235000000000000
-0.303786626596544 0.131327494066640 3.223000000000000
-0.303786626596544 0.140160389820382 3.223000000000000
-0.303221091455502 0.148715916752081 3.217000000000000
-0.303975138310225 0.157924118765861 3.225000000000000
-0.304257905880746 0.166917623586545 3.228000000000000
-0.305200464449150 0.176308721080009 3.238000000000000
-0.304729185164948 0.184896773238765 3.233000000000000
-0.303032579741821 0.192678315967179 3.215000000000000
-0.303598114882863 0.201865316838684 3.221000000000000
-0.305483232019671 0.212000975647188 3.241000000000000
-0.307556860870159 0.347577829787934 3.263000000000000
-0.317170958267878 0.376887082540848 3.365000000000000
-0.316134143842634 0.384846971382843 3.354000000000000
-0.317925005122601 0.396271065483466 3.373000000000000
-0.318773307834164 0.406597063192339 3.382000000000000
-0.319621610545728 0.416972391377033 3.391000000000000
-0.319244587118366 0.425762884846226 3.387000000000000
-0.318679051977324 0.434274562466085 3.381000000000000
-0.317642237552080 0.442097422208580 3.370000000000000
-0.318019260979441 0.451868890557599 3.374000000000000
-0.319056075404686 0.462618954961276 3.385000000000000
-0.319904378116249 0.473150496319398 3.394000000000000
-0.319810122259409 0.482309883086772 3.393000000000000
-0.320187145686770 0.492188234133401 3.397000000000000
-0.320658424970972 0.502236139506586 3.402000000000000
-0.321978006966737 0.513664782973312 3.416000000000000
-0.321883751109897 0.522873500216506 3.415000000000000
-0.321506727682535 0.531609182045899 3.411000000000000
-0.320375657400451 0.539054203230598 3.399000000000000
-0.321223960112014 0.549821434639860 3.408000000000000
-0.322732053821460 0.561786508662980 3.424000000000000
-0.323109077248822 0.571837516374977 3.428000000000000
-0.322072262823578 0.579367133844543 3.417000000000000
-0.320752680827812 0.586319573784689 3.403000000000000
-0.326408032238235 0.663091716316877 3.463000000000000
-0.327067823236118 0.673941888699484 3.470000000000000
-0.327350590806639 0.684042588644124 3.473000000000000
-0.328104637661362 0.695158235722938 3.481000000000000
-0.329424219657127 0.707532379976212 3.495000000000000
-0.330555289939212 0.719572896740352 3.507000000000000
-0.329612731370808 0.727104893035085 3.497000000000000
-0.329047196229766 0.735424729915645 3.491000000000000
-0.330178266511850 0.747552945303465 3.503000000000000
-0.332440407076019 0.762340665303684 3.527000000000000
-0.333477221501264 0.774414430808526 3.538000000000000
-0.332817430503381 0.782559232198550 3.531000000000000
-0.333100198073902 0.792909325104279 3.534000000000000
-0.334231268355987 0.805319820437068 3.546000000000000
-0.333854244928625 0.814118535652231 3.542000000000000
-0.333194453930742 0.822197563074494 3.535000000000000
-0.332817430503381 0.830944207231848 3.531000000000000
-0.333759989071785 0.843001891001573 3.541000000000000
-0.334514035926508 0.854632767494505 3.549000000000000
-0.334891059353869 0.865333293138131 3.553000000000000
-0.335456594494912 0.876548324682229 3.559000000000000
-0.338472781913804 0.894271054521138 3.591000000000000
-0.290221979372994 -0.774591439518096 3.171000000000000
-0.290221979372994 -0.765901054027833 3.171000000000000
-0.292327026842429 -0.762702893506465 3.194000000000000
-0.289764360357899 -0.747340024007498 3.166000000000000
-0.273381599617513 -0.647783921553581 2.987000000000000
-0.277042551738269 -0.648162889231157 3.027000000000000
-0.277683218359402 -0.641346853537817 3.034000000000000
-0.277317123147326 -0.632197343827935 3.030000000000000
-0.277225599344307 -0.623687474992189 3.029000000000000
-0.277317123147326 -0.615589416968587 3.030000000000000
-0.277591694556383 -0.607886726265190 3.033000000000000
-0.277225599344307 -0.598783806449138 3.029000000000000
-0.277042551738269 -0.590092697445230 3.027000000000000
-0.276584932723175 -0.580835943280915 3.022000000000000
-0.276310361314118 -0.571985518764765 3.019000000000000
-0.276218837511099 -0.563524980404839 3.018000000000000
-0.276127313708080 -0.555069923208893 3.017000000000000
-0.276401885117137 -0.547345307849575 3.020000000000000
-0.277134075541288 -0.540496746929178 3.028000000000000
-0.277774742162421 -0.533428577692759 3.035000000000000
-0.278140837374496 -0.525802985041904 3.039000000000000
-0.277683218359402 -0.516622967173309 3.034000000000000
-0.277317123147326 -0.507637892382827 3.030000000000000
-0.277134075541288 -0.499004335600708 3.028000000000000
-0.276951027935250 -0.490381741146550 3.026000000000000
-0.276767980329213 -0.481770109020352 3.024000000000000
-0.276310361314118 -0.472699714431357 3.019000000000000
-0.276310361314118 -0.464425897403573 3.019000000000000
-0.276767980329213 -0.456907549207150 3.024000000000000
-0.277500170753364 -0.449806854743673 3.032000000000000
-0.277134075541288 -0.440914959740851 3.028000000000000
-0.276951027935250 -0.432330733434552 3.026000000000000
-0.277134075541288 -0.424317995209463 3.028000000000000
-0.278323884980534 -0.417805594075958 3.041000000000000
-0.278781503995629 -0.410144735616055 3.046000000000000
-0.277866265965440 -0.400477825951119 3.036000000000000
-0.275120551874872 -0.355329587871280 3.006000000000000
-0.277500170753364 -0.350093519619826 3.032000000000000
-0.278232361177515 -0.342685879973471 3.040000000000000
-0.278689980192610 -0.334904435906009 3.045000000000000
-0.278598456389591 -0.326452119292053 3.044000000000000
-0.279239123010723 -0.318841314821616 3.051000000000000
-0.278964551601667 -0.310174509298795 3.048000000000000
-0.278964551601667 -0.301821215393301 3.048000000000000
-0.278689980192610 -0.293179075108390 3.045000000000000
-0.279147599207704 -0.285301710671278 3.050000000000000
-0.279422170616761 -0.277215338489282 3.053000000000000
-0.279879789631856 -0.269288643576350 3.058000000000000
-0.279971313434875 -0.260993263649469 3.059000000000000
-0.280245884843931 -0.252857560991652 3.062000000000000
-0.280703503859026 -0.244865092110961 3.067000000000000
-0.281252646677140 -0.236922315462912 3.073000000000000
-0.281435694283177 -0.228649221948773 3.075000000000000
-0.281344170480158 -0.220150315440987 3.074000000000000
-0.281527218086196 -0.211863519016898 3.076000000000000
-0.281710265692234 -0.203565760264850 3.078000000000000
-0.281893313298272 -0.195257039184841 3.080000000000000
-0.282442456116386 -0.187179974019283 3.086000000000000
-0.282625503722423 -0.178838365955394 3.088000000000000
-0.283266170343556 -0.170761662546658 3.095000000000000
-0.283174646540537 -0.162227128473003 3.094000000000000
-0.283449217949594 -0.153896844493897 3.097000000000000
-0.283632265555631 -0.145503165372198 3.099000000000000
-0.284089884570726 -0.137231157128528 3.104000000000000
-0.284089884570726 -0.128724390631595 3.104000000000000
-0.284181408373745 -0.120256354039344 3.105000000000000
-0.284089884570726 -0.111710857637728 3.104000000000000
-0.284547503585821 -0.103370334844308 3.109000000000000
-0.290862645994126 -0.001149663182473 3.178000000000000
-0.290221979372994 0.007543254605548 3.171000000000000
-0.290954169797145 0.016274595353069 3.179000000000000
-0.291045693600164 0.024994765488399 3.180000000000000
-0.289306741342804 0.033508405364963 3.161000000000000
-0.285737313025067 0.050207177036115 3.122000000000000
-0.285462741616010 0.067254682284330 3.119000000000000
-0.299923502492999 0.115566056247705 3.277000000000000
-0.298001502629602 0.123748809217125 3.256000000000000
-0.294340550508845 0.131042265255450 3.216000000000000
-0.294889693326959 0.140116902265365 3.222000000000000
-0.294157502902807 0.148577232341060 3.214000000000000
-0.294981217129977 0.157826181327867 3.223000000000000
-0.295347312342053 0.166865914285558 3.227000000000000
-0.296171026569223 0.176199821314054 3.236000000000000
-0.295713407554129 0.184782392308831 3.231000000000000
-0.295621883751110 0.193577281671536 3.230000000000000
-0.295347312342053 0.202241346612367 3.227000000000000
-0.297269312205451 0.337078605372637 3.248000000000000
-0.307245406734513 0.375991065702713 3.357000000000000
-0.308160644764702 0.386338626310683 3.367000000000000
-0.307336930537532 0.394508816452262 3.358000000000000
-0.308526739976778 0.405274600834233 3.371000000000000
-0.309533501809986 0.415865711482490 3.382000000000000
-0.309350454203948 0.424882949743207 3.380000000000000
-0.308435216173759 0.432861660902309 3.370000000000000
-0.307794549552626 0.441179118957702 3.363000000000000
-0.308252168567721 0.451065329993477 3.368000000000000
-0.309808073219042 0.462618954961276 3.385000000000000
-0.310448739840175 0.472871680470065 3.392000000000000
-0.310174168431118 0.481741289060145 3.389000000000000
-0.309625025613005 0.490159786892344 3.383000000000000
-0.309808073219042 0.499726435105759 3.385000000000000
-0.310906358855270 0.510807748173402 3.397000000000000
-0.310997882658288 0.520270616028020 3.398000000000000
-0.311180930264326 0.529894816463224 3.400000000000000
-0.310723311249232 0.538419835236211 3.395000000000000
-0.312004644491497 0.549982767220447 3.409000000000000
-0.312828358718667 0.560802069687519 3.418000000000000
-0.312370739703572 0.569335310206475 3.413000000000000
-0.311089406461307 0.576315155966521 3.399000000000000
-0.310265692234137 0.584079739973581 3.390000000000000
-0.316031691824329 0.661176926492110 3.453000000000000
-0.317038453657537 0.672776571312684 3.464000000000000
-0.316672358445461 0.681482106740187 3.460000000000000
-0.317221501263575 0.692162724796238 3.466000000000000
-0.318319786899802 0.704090877698788 3.478000000000000
-0.319143501126972 0.715469258891818 3.487000000000000
-0.318594358308859 0.723778133444418 3.481000000000000
-0.317953691687726 0.731843457956732 3.474000000000000
-0.319143501126972 0.744138487089118 3.487000000000000
-0.321157024793388 0.758450069336724 3.509000000000000
-0.321614643808483 0.769161195551487 3.514000000000000
-0.321980739020559 0.779678102201784 3.518000000000000
-0.322255310429615 0.789992567541643 3.521000000000000
-0.323628167474899 0.803048754953602 3.536000000000000
-0.323719691277918 0.812969300000548 3.537000000000000
-0.323811215080937 0.822895326211474 3.538000000000000
-0.323536643671880 0.831885520409114 3.535000000000000
-0.323902738883956 0.842525753248960 3.539000000000000
-0.323994262686975 0.852465482369836 3.540000000000000
-0.325092548323202 0.865089743097844 3.552000000000000
-0.325824738747353 0.876794615304506 3.560000000000000
-0.326739976777543 0.889041399231541 3.570000000000000
-0.327014548186599 0.899580592294580 3.573000000000000
-0.328570452837921 0.913699402005010 3.590000000000000
-0.280315552216379 -0.753867575078244 3.157000000000000
-0.279072467727614 -0.741910832424374 3.143000000000000
-0.263178744621269 -0.642795963670845 2.964000000000000
-0.268062290827129 -0.646449872014821 3.019000000000000
-0.269127791817499 -0.640712693827661 3.031000000000000
-0.268772624820709 -0.631571405863749 3.027000000000000
-0.268328666074722 -0.622246137149685 3.022000000000000
-0.268417457823919 -0.614167263200013 3.023000000000000
-0.268861416569906 -0.606884605054729 3.028000000000000
-0.268683833071512 -0.598190755468831 3.026000000000000
-0.268417457823919 -0.589312925132781 3.023000000000000
-0.268151082576327 -0.580451538288671 3.020000000000000
-0.268151082576327 -0.572174980678897 3.020000000000000
-0.268062290827129 -0.563711701736981 3.019000000000000
-0.267884707328734 -0.555069923208893 3.017000000000000
-0.268328666074722 -0.547707788185899 3.022000000000000
-0.269216583566696 -0.541210745273866 3.032000000000000
-0.269660542312684 -0.533780095701123 3.037000000000000
-0.269571750563486 -0.525283929775327 3.036000000000000
-0.269039000068301 -0.515941855812500 3.030000000000000
-0.268861416569906 -0.507302817866402 3.028000000000000
-0.268595041322314 -0.498509945572042 3.025000000000000
-0.268062290827129 -0.489247348486925 3.019000000000000
-0.267795915579537 -0.480495584922414 3.016000000000000
-0.267707123830339 -0.472073414710348 3.015000000000000
-0.267795915579537 -0.463964394358786 3.016000000000000
-0.268062290827129 -0.456152080375789 3.019000000000000
-0.268062290827129 -0.447878263348005 3.019000000000000
-0.268151082576327 -0.439750058922513 3.020000000000000
-0.267973499077932 -0.431187757272134 3.018000000000000
-0.268239874325524 -0.423337075141277 3.021000000000000
-0.268861416569906 -0.416019512943769 3.028000000000000
-0.269482958814289 -0.408663582598401 3.035000000000000
-0.268595041322314 -0.399026819335354 3.025000000000000
-0.266730414589167 -0.355093174306496 3.004000000000000
-0.268772624820709 -0.349516188617815 3.027000000000000
-0.269749334061881 -0.342460428736647 3.038000000000000
-0.270104501058671 -0.334574480796742 3.042000000000000
-0.269749334061881 -0.325808652565459 3.038000000000000
-0.270104501058671 -0.317900779969634 3.042000000000000
-0.270193292807868 -0.309665692846533 3.043000000000000
-0.270459668055461 -0.301623169976376 3.046000000000000
-0.270370876306263 -0.293179075108390 3.045000000000000
-0.270637251553856 -0.285114627582313 3.048000000000000
-0.270903626801448 -0.277033736564297 3.051000000000000
-0.271258793798238 -0.269024462434843 3.055000000000000
-0.271258793798238 -0.260651984455419 3.055000000000000
-0.271347585547435 -0.252362085692518 3.056000000000000
-0.271702752544225 -0.244306221669234 3.060000000000000
-0.272057919541015 -0.236228432990030 3.064000000000000
-0.272413086537805 -0.228128719654906 3.068000000000000
-0.272501878287002 -0.219792230998175 3.069000000000000
-0.272768253534595 -0.211588013790609 3.072000000000000
-0.272590670036200 -0.203036674468190 3.070000000000000
-0.272679461785397 -0.194686482901509 3.071000000000000
-0.273212212280582 -0.186634082973860 3.077000000000000
-0.273833754524964 -0.178606710040944 3.084000000000000
-0.274277713270951 -0.170430622166923 3.089000000000000
-0.274366505020149 -0.162017397214473 3.090000000000000
-0.274455296769346 -0.153598691098042 3.091000000000000
-0.274721672016939 -0.145268407118936 3.094000000000000
-0.274988047264531 -0.136921679647890 3.097000000000000
-0.274988047264531 -0.128434097224887 3.097000000000000
-0.274899255515334 -0.119907784897201 3.096000000000000
-0.274899255515334 -0.111422943056187 3.096000000000000
-0.274988047264531 -0.102971349955877 3.097000000000000
-0.273567379277372 -0.009558305881837 3.081000000000000
-0.279960385219589 -0.001140619261907 3.153000000000000
-0.280315552216379 0.007509951053206 3.157000000000000
-0.281025886209958 0.016202923652867 3.165000000000000
-0.274366505020149 0.041224163163289 3.090000000000000
-0.277918174988047 0.058913852545727 3.130000000000000
-0.278273341984837 0.076167109727422 3.134000000000000
-0.278095758486442 0.084702005557900 3.132000000000000
-0.290970562120074 0.115566056247705 3.277000000000000
-0.285376681920634 0.130960771309395 3.214000000000000
-0.285287890171436 0.139725514270210 3.213000000000000
-0.285287890171436 0.148531004204053 3.213000000000000
-0.285909432415819 0.157679275170875 3.220000000000000
-0.285909432415819 0.166503949178648 3.220000000000000
-0.286353391161806 0.175600872601306 3.225000000000000
-0.285909432415819 0.184153297194192 3.220000000000000
-0.285731848917424 0.192858109108050 3.218000000000000
-0.283600846936685 0.200173182857111 3.194000000000000
-0.284755139676252 0.324034564220058 3.207000000000000
-0.285110306673041 0.333238732097148 3.211000000000000
-0.300382487535004 0.378903120426654 3.383000000000000
-0.297274776313093 0.384158515262301 3.348000000000000
-0.297363568062291 0.393451467033539 3.349000000000000
-0.297896318557476 0.403351019222442 3.355000000000000
-0.298606652551055 0.413529387260679 3.363000000000000
-0.299494570043030 0.424003014640189 3.373000000000000
-0.298251485554265 0.431448759338533 3.359000000000000
-0.297896318557476 0.440129629528127 3.355000000000000
-0.297896318557476 0.449324282104548 3.355000000000000
-0.300116112287412 0.461935618247891 3.380000000000000
-0.300560071033399 0.471895824997396 3.385000000000000
-0.301004029779387 0.481883437566802 3.390000000000000
-0.299849737039820 0.489290452360463 3.377000000000000
-0.299405778293832 0.497807249387480 3.372000000000000
-0.299583361792227 0.507349232362985 3.374000000000000
-0.300560071033399 0.518280175178001 3.385000000000000
-0.301092821528584 0.528492153713763 3.391000000000000
-0.301803155522164 0.539054203230598 3.399000000000000
-0.302691073014138 0.549982767220447 3.409000000000000
-0.302424697766546 0.558833191736597 3.406000000000000
-0.302247114268151 0.567833986505374 3.404000000000000
-0.302158322518954 0.576993373272748 3.403000000000000
-0.300915238030189 0.583907445065034 3.389000000000000
-0.306153951232839 0.660219531579726 3.448000000000000
-0.306953076975616 0.671417034361417 3.457000000000000
-0.306864285226419 0.680694266154360 3.456000000000000
-0.306953076975616 0.690365418240217 3.457000000000000
-0.308196161464381 0.702673788525731 3.471000000000000
-0.309350454203948 0.714853713214538 3.484000000000000
-0.308728911959566 0.722946443546751 3.477000000000000
-0.307840994467591 0.730368816561885 3.467000000000000
-0.308373744962776 0.741150836151565 3.473000000000000
-0.311126289187897 0.757369348234791 3.504000000000000
-0.311925414930674 0.768942310749111 3.513000000000000
-0.312546957175056 0.780121352970517 3.520000000000000
-0.312369373676661 0.789319469642573 3.518000000000000
-0.312990915921044 0.800550582921789 3.525000000000000
-0.312280581927464 0.808372357393816 3.517000000000000
-0.313790041663821 0.821964975362168 3.534000000000000
-0.314145208660611 0.832591505292064 3.538000000000000
-0.314145208660611 0.842287684372653 3.538000000000000
-0.314056416911413 0.851743053994946 3.537000000000000
-0.315033126152585 0.864115542936698 3.548000000000000
-0.315210709650980 0.874331709081741 3.550000000000000
-0.315388293149375 0.884558837554743 3.552000000000000
-0.315121917901783 0.893538069424423 3.549000000000000
-0.314145208660611 0.900464758856191 3.538000000000000
-0.319650297110853 0.926110620851444 3.600000000000000
-0.270227443480637 -0.749808104449061 3.140000000000000
-0.269022607745373 -0.737897951689021 3.126000000000000
-0.258781503995629 -0.643880346190317 3.007000000000000
-0.259986339730893 -0.638598828127141 3.021000000000000
-0.259642100949389 -0.629484945983129 3.017000000000000
-0.259297862167885 -0.620392988495037 3.013000000000000
-0.259469981558637 -0.612541944607357 3.015000000000000
-0.259986339730893 -0.605481635360085 3.021000000000000
-0.260158459121645 -0.597597704488525 3.023000000000000
-0.260158459121645 -0.589312925132781 3.023000000000000
-0.259986339730893 -0.580643740784793 3.021000000000000
-0.260158459121645 -0.572743366421293 3.023000000000000
-0.260072399426269 -0.564271865733407 3.022000000000000
-0.259900280035517 -0.555621865459349 3.020000000000000
-0.259728160644765 -0.546982827513251 3.018000000000000
-0.260330578512397 -0.539961248170661 3.025000000000000
-0.260502697903149 -0.532022505659302 3.027000000000000
-0.260244518817021 -0.523207708709021 3.024000000000000
-0.260158459121645 -0.514749910931085 3.023000000000000
-0.260158459121645 -0.506465131575341 3.023000000000000
-0.260330578512397 -0.498509945572042 3.025000000000000
-0.259383921863261 -0.488437068015764 3.014000000000000
-0.258695444300253 -0.478902429799992 3.006000000000000
-0.258437265214125 -0.470194515547322 3.003000000000000
-0.258953623386381 -0.462887553920951 3.009000000000000
-0.259642100949389 -0.455849892843244 3.017000000000000
-0.259383921863261 -0.447136497426594 3.014000000000000
-0.259642100949389 -0.439313221115636 3.017000000000000
-0.259900280035517 -0.431473501312739 3.020000000000000
-0.259986339730893 -0.423337075141277 3.021000000000000
-0.259986339730893 -0.415057776949513 3.021000000000000
-0.260416638207773 -0.407451730129410 3.026000000000000
-0.259383921863261 -0.397575812719589 3.014000000000000
-0.254994877399085 -0.358367040664756 2.963000000000000
-0.258695444300253 -0.355329587871280 3.006000000000000
-0.260244518817021 -0.349169790016608 3.024000000000000
-0.260846936684653 -0.341671349407760 3.031000000000000
-0.261105115770781 -0.333694600505363 3.034000000000000
-0.260674817293901 -0.324843452475568 3.029000000000000
-0.260674817293901 -0.316542229627884 3.029000000000000
-0.261019056075405 -0.308648059942009 3.033000000000000
-0.261621473943037 -0.301029033725602 3.040000000000000
-0.261879653029165 -0.292986510855445 3.043000000000000
-0.262137832115293 -0.284927544493349 3.046000000000000
-0.262568130592173 -0.277033736564297 3.051000000000000
-0.262740249982925 -0.268848341673838 3.053000000000000
-0.263084488764429 -0.260822624052444 3.057000000000000
-0.263256608155181 -0.252609823342085 3.059000000000000
-0.263686906632061 -0.244625576207363 3.064000000000000
-0.263342667850557 -0.235920040779860 3.060000000000000
-0.263514787241309 -0.227682574831591 3.062000000000000
-0.263600846936685 -0.219362529666800 3.063000000000000
-0.264289324499693 -0.211519137484036 3.071000000000000
-0.264203264804317 -0.203036674468190 3.070000000000000
-0.264289324499693 -0.194686482901509 3.071000000000000
-0.264547503585821 -0.186452119292053 3.074000000000000
-0.265235981148829 -0.178490882083719 3.082000000000000
-0.265580219930333 -0.170265101977056 3.086000000000000
-0.265752339321085 -0.161912531585207 3.088000000000000
-0.265924458711837 -0.153548998865399 3.090000000000000
-0.266354757188717 -0.145315358769588 3.095000000000000
-0.266182637797965 -0.136744835373240 3.093000000000000
-0.266010518407213 -0.128185274304851 3.091000000000000
-0.265838399016461 -0.119636675564423 3.089000000000000
-0.265924458711837 -0.111207007120032 3.090000000000000
-0.265752339321085 -0.102672111289553 3.088000000000000
-0.271690458302029 -0.001142066289197 3.157000000000000
-0.271260159825149 0.007498056927369 3.152000000000000
-0.270743801652893 0.016105654916878 3.146000000000000
-0.272206816474285 0.024861145672895 3.163000000000000
-0.267817772010109 0.050046359684943 3.112000000000000
-0.266871115360973 0.092362184353469 3.101000000000000
-0.278230995150605 0.105154059075985 3.233000000000000
-0.277628577282972 0.113767499986297 3.226000000000000
-0.277800696673724 0.140377827595468 3.228000000000000
-0.277198278806092 0.148900829300110 3.221000000000000
-0.276940099719965 0.157581337732881 3.218000000000000
-0.276681920633837 0.166245402673712 3.215000000000000
-0.276595860938461 0.175001923888557 3.214000000000000
-0.275649204289324 0.183181059289751 3.203000000000000
-0.273841950686429 0.190700591417593 3.182000000000000
-0.273325592514173 0.199045093536063 3.176000000000000
-0.289074516767980 0.367009455007865 3.359000000000000
-0.287869681032716 0.374647040445509 3.345000000000000
-0.288386039204972 0.384502743322572 3.351000000000000
-0.287869681032716 0.392981533958551 3.345000000000000
-0.288472098900348 0.402990347670231 3.352000000000000
-0.289246636158732 0.413283458395225 3.361000000000000
-0.290107233112492 0.423751604610755 3.371000000000000
-0.289590874940236 0.432219432918775 3.365000000000000
-0.289246636158732 0.440916746600308 3.361000000000000
-0.289504815244860 0.450529622950730 3.364000000000000
-0.290623591284748 0.461525616219860 3.377000000000000
-0.290967830066252 0.471338193298729 3.381000000000000
-0.291828427020012 0.482025586073458 3.391000000000000
-0.290881770370876 0.489725119626404 3.380000000000000
-0.290107233112492 0.497659619716843 3.371000000000000
-0.289504815244860 0.505845529836716 3.364000000000000
-0.290193292807868 0.516289734327982 3.372000000000000
-0.291053889761628 0.527089490964301 3.382000000000000
-0.291828427020012 0.537785467241823 3.391000000000000
-0.292000546410764 0.547401445931058 3.393000000000000
-0.292861143364524 0.558340972248867 3.403000000000000
-0.292344785192268 0.566666290293407 3.397000000000000
-0.292775083669148 0.576823818946191 3.402000000000000
-0.292602964278396 0.585802689059049 3.400000000000000
-0.296045352093436 0.658687699719912 3.440000000000000
-0.297766546000956 0.671999693054817 3.460000000000000
-0.297938665391708 0.681876027033101 3.462000000000000
-0.298110784782460 0.691763323339344 3.464000000000000
-0.298196844477836 0.701459140663111 3.465000000000000
-0.299143501126972 0.713212258075125 3.476000000000000
-0.298196844477836 0.720451373853751 3.465000000000000
-0.297766546000956 0.728894175167038 3.460000000000000
-0.297938665391708 0.738803396129202 3.462000000000000
-0.300348336862236 0.754343329149378 3.490000000000000
-0.301294993511372 0.766315693120591 3.501000000000000
-0.302327709855884 0.778569975279950 3.513000000000000
-0.302585888942012 0.788870737709860 3.516000000000000
-0.302327709855884 0.797825304341630 3.513000000000000
-0.301897411379004 0.806303733220787 3.508000000000000
-0.302499829246636 0.817545808827963 3.515000000000000
-0.303532545591148 0.830002894054581 3.527000000000000
-0.304565261935660 0.842525753248960 3.539000000000000
-0.304479202240284 0.851983863453243 3.538000000000000
-0.304565261935660 0.861923592574119 3.539000000000000
-0.305856157366300 0.875316871570847 3.554000000000000
-0.306286455843180 0.886302055984609 3.559000000000000
-0.305684037975548 0.894293384783193 3.552000000000000
-0.303704664981900 0.898174147541972 3.529000000000000
-0.261315483915033 -0.748852934889253 3.136000000000000
-0.261982105047469 -0.742146884232336 3.144000000000000
-0.251066184003825 -0.645165109102569 3.013000000000000
-0.250649545796052 -0.635850802716465 3.008000000000000
-0.250316235229834 -0.626772548138323 3.004000000000000
-0.250482890512943 -0.618951650652533 3.006000000000000
-0.250816201079161 -0.611526120486947 3.010000000000000
-0.251399494570043 -0.604679938391717 3.017000000000000
-0.251566149853152 -0.596806969848117 3.019000000000000
-0.251399494570043 -0.588143266664109 3.017000000000000
-0.251399494570043 -0.579874930800305 3.017000000000000
-0.251566149853152 -0.571985518764765 3.019000000000000
-0.251649477494707 -0.563898423069123 3.020000000000000
-0.251316166928489 -0.554885942458741 3.016000000000000
-0.251232839286934 -0.546439107008764 3.015000000000000
-0.251566149853152 -0.538890250653629 3.019000000000000
-0.251482822211598 -0.530440674621663 3.018000000000000
-0.251316166928489 -0.521823561331484 3.016000000000000
-0.251149511645379 -0.513217410369266 3.014000000000000
-0.251399494570043 -0.505459908026068 3.017000000000000
-0.251816132777816 -0.498015555543375 3.022000000000000
-0.251482822211598 -0.489085292392693 3.018000000000000
-0.250732873437607 -0.479380376336719 3.009000000000000
-0.250232907588279 -0.470194515547322 3.003000000000000
-0.250316235229834 -0.462118382179640 3.004000000000000
-0.251066184003825 -0.455245517778155 3.013000000000000
-0.250899528720716 -0.446691437873747 3.011000000000000
-0.251232839286934 -0.439021995911052 3.015000000000000
-0.251149511645379 -0.430616269190925 3.014000000000000
-0.251399494570043 -0.422776549388028 3.017000000000000
-0.251399494570043 -0.414508213524224 3.017000000000000
-0.251649477494707 -0.406643828483417 3.020000000000000
-0.251399494570043 -0.397971541796616 3.017000000000000
-0.250399562871389 -0.355211381088888 3.005000000000000
-0.251566149853152 -0.348592459014596 3.019000000000000
-0.252232770985588 -0.341220446934111 3.027000000000000
