# This PCD file was generated using the MATLAB® pcwrite function
# from Computer Vision System Toolbox®.
# .PCD v.7 - Point Cloud Data file format
VERSION .7
FIELDS x y z
SIZE 8 8 8
TYPE F F F
COUNT 1 1 1
WIDTH 878
HEIGHT 1
VIEWPOINT 0 0 0 1 0 0 0
POINTS 878
DATA ascii
0.471301140632471 0.382599189883964 3.416000000000000
0.468541766272796 0.389666164226635 3.396000000000000
0.467575985246909 0.398150797783417 3.389000000000000
0.469093641144731 0.408761092505604 3.400000000000000
0.468817703708763 0.417833142406121 3.398000000000000
0.469369578580698 0.427648460066980 3.402000000000000
0.467851922682877 0.435559018433154 3.391000000000000
0.466886141656991 0.443934028710337 3.384000000000000
0.466886141656991 0.453208158164468 3.384000000000000
0.467713953964893 0.463302291674660 3.390000000000000
0.467713953964893 0.472592864620731 3.390000000000000
0.467575985246909 0.481741289060145 3.389000000000000
0.466748172939007 0.490159786892344 3.383000000000000
0.466334266785056 0.498988286752575 3.380000000000000
0.466472235503039 0.508401824131372 3.381000000000000
0.466472235503039 0.517667731839533 3.381000000000000
0.465506454477153 0.525842679631446 3.374000000000000
0.461091455501673 0.530014459310579 3.342000000000000
0.454193019602486 0.531106855291790 3.292000000000000
0.449502083191039 0.534550363675230 3.258000000000000
0.438740523188307 0.582758012091448 3.180000000000000
0.439982241650161 0.593147043186091 3.189000000000000
0.440258179086128 0.602264235953147 3.191000000000000
0.440534116522096 0.611392391048163 3.193000000000000
0.440120210368144 0.619560410648805 3.190000000000000
0.439154429342258 0.626924146171681 3.183000000000000
0.438188648316372 0.634249513546697 3.176000000000000
0.437912710880404 0.642548719326036 3.174000000000000
0.438188648316372 0.651657690347122 3.176000000000000
0.438740523188307 0.661193468645001 3.180000000000000
0.438878491906291 0.670119182429581 3.181000000000000
0.438602554470323 0.678410166462950 3.179000000000000
0.438740523188307 0.687338620829519 3.180000000000000
0.439430366778226 0.697148095569575 3.185000000000000
0.440258179086128 0.707206601513898 3.191000000000000
0.440948022676047 0.717073628475743 3.196000000000000
0.441499897547982 0.726740954709142 3.200000000000000
0.441913803701933 0.736200358468124 3.203000000000000
0.442327709855884 0.745676205719046 3.206000000000000
0.443845365753705 0.757051122816441 3.217000000000000
0.445225052933543 0.768248263841309 3.227000000000000
0.448812239601120 0.783353167838722 3.253000000000000
0.459021924731917 0.810290984033369 3.327000000000000
0.475854108325934 0.858908623515290 3.449000000000000
0.476405983197869 0.869367977943796 3.453000000000000
0.476268014479885 0.878576695186990 3.452000000000000
0.478613482685609 0.892410484370461 3.469000000000000
0.481234888327300 0.906857440406045 3.488000000000000
0.480820982173349 0.915628388044485 3.485000000000000
0.480545044737381 0.924648366887192 3.483000000000000
0.480683013455365 0.934462029236529 3.484000000000000
0.469093641144731 1.359194926634620 3.400000000000000
0.467438016528926 1.363682859852118 3.388000000000000
0.466196298067072 1.369320752234944 3.379000000000000
0.465230517041186 1.375725284061323 3.372000000000000
0.464540673451267 1.382912898823194 3.367000000000000
0.463988798579332 1.390486573888831 3.363000000000000
0.463023017553446 1.396789704181580 3.356000000000000
0.462333173963527 1.403892360901761 3.351000000000000
0.462057236527560 1.412232675410950 3.349000000000000
0.461643330373608 1.420137599140553 3.346000000000000
0.461781299091592 1.429734755512681 3.347000000000000
0.460953486783690 1.436328025739546 3.341000000000000
0.460677549347722 1.444619009772916 3.339000000000000
0.460263643193771 1.452463640698739 3.336000000000000
0.459849737039820 1.460291828132622 3.333000000000000
0.459573799603852 1.468544444018132 3.331000000000000
0.459435830885868 1.477229710101237 3.330000000000000
0.458470049859982 1.483231376375087 3.323000000000000
0.457918174988047 1.490541955569685 3.319000000000000
0.457228331398129 1.497378775836837 3.314000000000000
0.457366300116112 1.506915639405184 3.315000000000000
0.457090362680145 1.515086037830994 3.313000000000000
0.458332081141999 1.528306090121298 3.322000000000000
0.458745987295950 1.538798693290507 3.325000000000000
0.458883956013934 1.548376665588704 3.326000000000000
0.459159893449901 1.558428396814348 3.328000000000000
0.459849737039820 1.569904145404318 3.333000000000000
0.459849737039820 1.579038505176959 3.333000000000000
0.459849737039820 1.588172864949601 3.333000000000000
0.459849737039820 1.597307224722242 3.333000000000000
0.455296769346356 1.635755825107020 3.300000000000000
0.453337886756369 -0.636936752848835 3.222000000000000
0.455870500648863 -0.631615573083100 3.240000000000000
0.448694761286797 -0.612933760133302 3.189000000000000
0.448131958199577 -0.603436196510691 3.185000000000000
0.447709855884161 -0.594147278876142 3.182000000000000
0.447569155112356 -0.585242766233837 3.181000000000000
0.448694761286797 -0.577974896268972 3.189000000000000
0.451930879038317 -0.573340670784848 3.212000000000000
0.456855406051499 -0.570689486579370 3.247000000000000
0.460232224574824 -0.565943258990479 3.271000000000000
0.461498531521071 -0.558511315863037 3.280000000000000
0.462061334608292 -0.550192355968714 3.284000000000000
0.462764838467318 -0.542016268094693 3.289000000000000
0.462342736151902 -0.532516325646914 3.286000000000000
0.461779933064681 -0.522873511178834 3.282000000000000
0.460935728433850 -0.512939471506169 3.276000000000000
0.460091523803019 -0.503038318817384 3.270000000000000
0.459247319172188 -0.493170053112479 3.264000000000000
0.457981012225941 -0.482889614838607 3.255000000000000
0.456574004507889 -0.472512894438263 3.245000000000000
0.450383170548460 -0.413470322237630 3.201000000000000
0.452071579810122 -0.406214861628015 3.213000000000000
0.453337886756369 -0.398522563211524 3.222000000000000
0.454322792159006 -0.390539039590448 3.229000000000000
0.454885595246226 -0.382162527474334 3.233000000000000
0.455166996789837 -0.373533158301497 3.235000000000000
0.456011201420668 -0.365343729274349 3.241000000000000
0.457136807595110 -0.357341383336165 3.249000000000000
0.458684516084967 -0.349616921449439 3.260000000000000
0.460654326890240 -0.342145678376260 3.274000000000000
0.462483436923707 -0.334495935716909 3.287000000000000
0.463186940782733 -0.325982756258119 3.292000000000000
0.462624137695513 -0.316575631841178 3.288000000000000
0.484432757325319 -0.208833652154372 3.443000000000000
0.484292056553514 -0.199339914384219 3.442000000000000
0.485417662727956 -0.190348218347648 3.450000000000000
0.486965371217813 -0.181469971443136 3.461000000000000
0.486824670446008 -0.171935124943133 3.460000000000000
0.487668875076839 -0.162734421161678 3.466000000000000
0.471628987091046 -0.093076917174131 3.352000000000000
0.475990711017007 -0.084666323180391 3.383000000000000
0.475287207157981 -0.075283502244537 3.378000000000000
0.474302301755345 -0.065888995467077 3.371000000000000
0.473035994809098 -0.056499246339953 3.362000000000000
0.472332490950072 -0.047215086355739 3.357000000000000
0.471488286319241 -0.037947008106642 3.351000000000000
0.472051089406461 -0.028797651869351 3.355000000000000
0.470644081688409 -0.019544570084903 3.345000000000000
0.467970767024110 -0.010318378890941 3.326000000000000
0.466282357762448 -0.001198862110358 3.314000000000000
0.465438153131617 0.007869153653470 3.308000000000000
0.465438153131617 0.016934998876361 3.308000000000000
0.464875350044396 0.025969404142664 3.304000000000000
0.463749743869954 0.034939482468497 3.296000000000000
0.464734649272591 0.044065828779400 3.303000000000000
0.465297452359812 0.053182298032810 3.307000000000000
0.464453247728980 0.062132468771068 3.301000000000000
0.462342736151902 0.070855686433571 3.286000000000000
0.461357830749266 0.079691114485072 3.279000000000000
0.461217129977461 0.088650438767177 3.278000000000000
0.461639232292876 0.097723420465570 3.281000000000000
0.461498531521071 0.106682744747675 3.280000000000000
0.462061334608292 0.115812916911035 3.284000000000000
0.461779933064681 0.124736975384093 3.282000000000000
0.462202035380097 0.133853806394326 3.285000000000000
0.462905539239123 0.143074056006534 3.290000000000000
0.463609043098149 0.152321711438641 3.295000000000000
0.462342736151902 0.160911210624688 3.286000000000000
0.460795027662045 0.169347960732941 3.275000000000000
0.460513626118435 0.178214466984209 3.273000000000000
0.460935728433850 0.187355963232352 3.276000000000000
0.463046240010928 0.197233075535921 3.291000000000000
0.490623591284748 0.390551339322418 3.487000000000000
0.485699064271566 0.396091754685025 3.452000000000000
0.485276961956151 0.414652061191715 3.449000000000000
0.484854859640735 0.423735435177014 3.446000000000000
0.483869954238098 0.432299545611506 3.439000000000000
0.480071033399358 0.438256375964000 3.412000000000000
0.478804726453111 0.446426566105578 3.403000000000000
0.477819821050475 0.454815279292710 3.396000000000000
0.479508230312137 0.465762303842844 3.408000000000000
0.477960521822280 0.473568720093399 3.397000000000000
0.478523324909501 0.483447071140027 3.401000000000000
0.478382624137696 0.492622901399341 3.400000000000000
0.478523324909501 0.502088509835949 3.401000000000000
0.477538419506864 0.510356637415522 3.394000000000000
0.477257017963254 0.519351951020319 3.392000000000000
0.476834915647838 0.528180450880549 3.389000000000000
0.474302301755345 0.534613627269887 3.371000000000000
0.468814971654942 0.537560158515262 3.332000000000000
0.462202035380097 0.538980339064804 3.285000000000000
0.444895840448057 0.570793661581973 3.162000000000000
0.448694761286797 0.584407327220008 3.189000000000000
0.449820367461239 0.594635025734065 3.197000000000000
0.449679666689434 0.603207927955581 3.196000000000000
0.449398265145823 0.611583870030640 3.194000000000000
0.448694761286797 0.619366191084339 3.189000000000000
0.447709855884161 0.626727186025224 3.182000000000000
0.447147052796940 0.634648915003590 3.178000000000000
0.447147052796940 0.643358484567783 3.178000000000000
0.447428454340551 0.652478417916829 3.180000000000000
0.447709855884161 0.661609313593835 3.182000000000000
0.447428454340551 0.669908519373174 3.180000000000000
0.446865651253330 0.677769955547760 3.176000000000000
0.447147052796940 0.686906332388746 3.178000000000000
0.447709855884161 0.696491441162445 3.182000000000000
0.448554060514992 0.706541725360798 3.188000000000000
0.448976162830408 0.715951798643960 3.191000000000000
0.449961068233044 0.726286741612449 3.198000000000000
0.450383170548460 0.735740664207451 3.201000000000000
0.450805272863875 0.745211030294393 3.204000000000000
0.451790178266512 0.755639153050542 3.211000000000000
0.452915784440953 0.766343712830857 3.219000000000000
0.456433303736084 0.781185882714053 3.244000000000000
0.486543268902397 0.861149904353688 3.458000000000000
0.487387473533229 0.872137467592618 3.464000000000000
0.486402568130592 0.879849257028222 3.457000000000000
0.489216583566696 0.894468507972353 3.477000000000000
0.491045693600164 0.907377427470498 3.490000000000000
0.490904992828359 0.916679324501351 3.489000000000000
0.478382624137696 1.368512905400591 3.400000000000000
0.475990711017007 1.370941729745729 3.383000000000000
0.475287207157981 1.378173193819440 3.378000000000000
0.474724404070760 1.385787977614926 3.374000000000000
0.474020900211734 1.392967370630827 3.369000000000000
0.473176695580903 1.399703151121172 3.363000000000000
0.472051089406461 1.405568150052345 3.355000000000000
0.471628987091046 1.413497739019858 3.352000000000000
0.471488286319241 1.422259741398683 3.351000000000000
0.471769687862851 1.432297769714376 3.353000000000000
0.470925483232020 1.438907483433182 3.347000000000000
0.470081278601189 1.445484310168107 3.341000000000000
0.469799877057578 1.453769813037497 3.339000000000000
0.469940577829383 1.463358747663654 3.340000000000000
0.469940577829383 1.472512291510225 3.340000000000000
0.468955672426747 1.478560547677905 3.333000000000000
0.467970767024110 1.484570435697725 3.326000000000000
0.467830066252305 1.493236517706900 3.325000000000000
0.467830066252305 1.502348952823622 3.325000000000000
0.467689365480500 1.511006813086827 3.324000000000000
0.467548664708695 1.519659192186052 3.323000000000000
0.467548664708695 1.528766146138794 3.323000000000000
0.467970767024110 1.539261489889993 3.326000000000000
0.467830066252305 1.547911128407228 3.325000000000000
0.467970767024110 1.557491841287416 3.326000000000000
0.467689365480500 1.565664980295216 3.324000000000000
0.467126562393279 1.572879639120164 3.320000000000000
0.466704460077864 1.580548872798627 3.317000000000000
0.467126562393279 1.591077103533706 3.320000000000000
0.465719554675227 1.640712660940677 3.310000000000000
0.454968922887781 -0.609666317699227 3.172000000000000
0.456116385492794 -0.602488886940031 3.180000000000000
0.456259818318421 -0.593960557544000 3.181000000000000
0.456116385492794 -0.585058785483685 3.180000000000000
0.457550713749061 -0.578156136437134 3.190000000000000
0.460706235912848 -0.573340670784848 3.212000000000000
0.466156683286661 -0.571216763591916 3.250000000000000
0.470029369578581 -0.566981369523632 3.277000000000000
0.471320265009221 -0.559532982904250 3.286000000000000
0.471893996311727 -0.551197579517986 3.290000000000000
0.472180861962981 -0.542510658123359 3.292000000000000
0.472037429137354 -0.533326606118075 3.291000000000000
0.471607130660474 -0.523829404252287 3.288000000000000
0.470889966532341 -0.514035496017934 3.283000000000000
0.470029369578581 -0.504115159255219 3.277000000000000
0.468451608496687 -0.493472240645023 3.266000000000000
0.467304145891674 -0.483334674391454 3.258000000000000
0.465869817635407 -0.472949732245140 3.248000000000000
0.457694146574688 -0.420923828264170 3.191000000000000
0.460419370261594 -0.414632844230801 3.210000000000000
0.461423400040981 -0.406720575741465 3.217000000000000
0.462857728297247 -0.399141002943385 3.227000000000000
0.463431459599754 -0.390780934319212 3.231000000000000
0.463574892425381 -0.382044320691942 3.232000000000000
0.463861758076634 -0.373417692101095 3.234000000000000
0.464865787856021 -0.365343729274349 3.241000000000000
0.466443548937914 -0.357671338445432 3.252000000000000
0.468451608496687 -0.350260388176033 3.266000000000000
0.471463697834847 -0.343504228718011 3.287000000000000
0.472467727614234 -0.335208278750075 3.294000000000000
0.472898026091114 -0.326477869800431 3.297000000000000
0.498142203401407 -0.182099165218726 3.473000000000000
0.496707875145140 -0.172084201641061 3.463000000000000
0.498285636227034 -0.163110034366898 3.474000000000000
0.492835188853220 -0.095409393618829 3.436000000000000
0.492118024725087 -0.085867618927555 3.431000000000000
0.490970562120074 -0.076286390817954 3.423000000000000
0.490109965166314 -0.066788103681698 3.417000000000000
0.489249368212554 -0.057322703529322 3.411000000000000
0.488245338433167 -0.047876125694052 3.404000000000000
0.490109965166314 -0.038694397702296 3.417000000000000
0.488819069735674 -0.029252577517362 3.408000000000000
0.487241308653781 -0.019848401966642 3.397000000000000
0.482364592582474 -0.010433165427010 3.363000000000000
0.479926234546821 -0.001210438328684 3.346000000000000
0.478061607813674 0.007928624282653 3.333000000000000
0.477774742162421 0.017052745240979 3.331000000000000
0.476770712383034 0.026126603925610 3.324000000000000
0.476627279557407 0.035225697889204 3.323000000000000
0.478061607813674 0.044466063373218 3.333000000000000
0.477918174988047 0.053584341410742 3.332000000000000
0.476627279557407 0.062546559747428 3.323000000000000
0.474619219998634 0.071351633112808 3.309000000000000
0.475766682603647 0.080614646766387 3.317000000000000
0.475192951301141 0.089596980974880 3.313000000000000
0.473758623044874 0.098378682657049 3.303000000000000
0.473471757393621 0.107365774515876 3.301000000000000
0.473328324567994 0.116377169855791 3.300000000000000
0.472611160439861 0.125231058467576 3.295000000000000
0.472754593265487 0.134302023097625 3.296000000000000
0.472754593265487 0.143334981336637 3.296000000000000
0.473615190219247 0.152645308397691 3.302000000000000
0.475049518475514 0.162184397318615 3.312000000000000
0.472180861962981 0.170227018849723 3.292000000000000
0.472180861962981 0.179249014760775 3.292000000000000
0.476483846731781 0.189986724620840 3.322000000000000
0.474906085649887 0.198431696475063 3.311000000000000
0.533139812854313 0.314444390850841 3.717000000000000
0.534143842633700 0.325242492175638 3.724000000000000
0.535004439587460 0.335988884199449 3.730000000000000
0.535004439587460 0.346211255022116 3.730000000000000
0.534717573936207 0.356242508619130 3.728000000000000
0.534000409808073 0.365967902303733 3.723000000000000
0.499433098832047 0.428162154755184 3.482000000000000
0.496707875145140 0.435316465964712 3.463000000000000
0.494126084283860 0.442495080655328 3.445000000000000
0.492835188853220 0.450755710002576 3.436000000000000
0.491831159073834 0.459234862395378 3.429000000000000
0.491831159073834 0.468632318039059 3.429000000000000
0.490827129294447 0.477053918210071 3.422000000000000
0.489679666689434 0.485295001726567 3.414000000000000
0.490396830817567 0.495375794083632 3.419000000000000
0.490253397991941 0.504598214236775 3.418000000000000
0.489679666689434 0.513364042468058 3.414000000000000
0.488388771258794 0.521342391870337 3.405000000000000
0.488532204084421 0.530829924962865 3.406000000000000
0.487241308653781 0.538737019233404 3.397000000000000
0.483368622361861 0.543690796577561 3.370000000000000
0.476196981080527 0.544722899754992 3.320000000000000
0.453678027457141 0.570974178236490 3.163000000000000
0.457550713749061 0.584590584456515 3.190000000000000
0.458841609179701 0.595007021371058 3.199000000000000
0.458124445051568 0.602830451154607 3.194000000000000
0.457694146574688 0.611009433083210 3.191000000000000
0.456976982446554 0.618783532390938 3.186000000000000
0.456690116795301 0.627121106318138 3.184000000000000
0.456259818318421 0.635248017188930 3.181000000000000
0.456259818318421 0.643965808499093 3.181000000000000
0.456403251144048 0.652888781701682 3.182000000000000
0.456546683969674 0.661817236068251 3.183000000000000
0.456403251144048 0.670329845485987 3.182000000000000
0.455686087015914 0.677983359186157 3.177000000000000
0.455829519841541 0.686906332388746 3.178000000000000
0.456116385492794 0.696053671557692 3.180000000000000
0.456976982446554 0.706098474592064 3.186000000000000
0.457263848097808 0.715278700744890 3.188000000000000
0.458411310702821 0.725832528515756 3.196000000000000
0.459271907656581 0.735970511337788 3.202000000000000
0.460132504610341 0.746141381143700 3.208000000000000
0.460849668738474 0.756109809639175 3.213000000000000
0.461853698517861 0.766581781707163 3.220000000000000
0.464435489379141 0.779741025964274 3.238000000000000
0.494843248411994 0.859157654719556 3.450000000000000
0.497568472098900 0.873396326523901 3.469000000000000
0.497998770575780 0.883666942551920 3.472000000000000
0.499576531657674 0.896012025673772 3.483000000000000
0.487528174305034 1.386740877972846 3.399000000000000
0.486954443002527 1.394413213990123 3.395000000000000
0.485376681920634 1.399169362485817 3.384000000000000
0.484085786489994 1.404697631589044 3.375000000000000
0.482508025408101 1.409338675641159 3.364000000000000
0.481503995628714 1.415606178368038 3.357000000000000
0.481217129977461 1.423957455205187 3.355000000000000
0.480786831500581 1.431870600680760 3.352000000000000
0.480499965849327 1.440197212280000 3.350000000000000
0.479495936069941 1.446349610563299 3.343000000000000
0.479782801721194 1.456382157715012 3.345000000000000
0.479926234546821 1.465987535833109 3.346000000000000
0.479639368895567 1.474275779284489 3.344000000000000
0.478922204767434 1.481222222831240 3.339000000000000
0.477918174988047 1.487248554343000 3.332000000000000
0.477918174988047 1.496380173533651 3.332000000000000
0.477631309336794 1.504608124181251 3.330000000000000
0.477344443685541 1.512825112500891 3.328000000000000
0.477057578034287 1.521031138492570 3.326000000000000
0.477057578034287 1.530146314191282 3.326000000000000
0.477201010859914 1.539724286489479 3.327000000000000
0.476770712383034 1.547445591225753 3.324000000000000
0.476770712383034 1.556555285760484 3.324000000000000
0.476627279557407 1.565193961949760 3.323000000000000
0.475910115429274 1.571932121265272 3.318000000000000
0.475336384126767 1.579119374270320 3.314000000000000
0.475479816952394 1.588680903076577 3.315000000000000
0.476196981080527 1.645669496774335 3.320000000000000
0.463781162488901 -0.618554386849591 3.173000000000000
0.464073492247797 -0.610242925187593 3.175000000000000
0.464219657127245 -0.601731039283502 3.176000000000000
0.465827470801175 -0.595080885536853 3.187000000000000
0.466412130318967 -0.587082573735358 3.191000000000000
0.466412130318967 -0.578337376605296 3.191000000000000
0.468312273751793 -0.571912674095471 3.204000000000000
0.472989549894133 -0.568756137533367 3.236000000000000
0.478543815313162 -0.566462314257056 3.274000000000000
0.480297793866539 -0.559532982904250 3.286000000000000
0.481174783143228 -0.551532654034411 3.292000000000000
0.481028618263780 -0.542345861447137 3.291000000000000
0.481028618263780 -0.533326606118075 3.291000000000000
0.480590123625436 -0.523829404252287 3.288000000000000
0.479859299228195 -0.514035496017934 3.283000000000000
0.478982309951506 -0.504115159255219 3.277000000000000
0.477520661157025 -0.493623334411296 3.267000000000000
0.476936001639232 -0.484076440312865 3.263000000000000
0.475912847483096 -0.474114633063477 3.256000000000000
0.467435284475104 -0.421847196110566 3.198000000000000
0.469920087425722 -0.415278689782562 3.215000000000000
0.471381736220204 -0.407732003968363 3.225000000000000
0.472551055255789 -0.399883130621619 3.233000000000000
0.473574209411925 -0.391869460598653 3.240000000000000
0.473428044532477 -0.382871768168688 3.239000000000000
0.473574209411925 -0.374110489303509 3.240000000000000
0.474889693326959 -0.366245534221647 3.249000000000000
0.476497507000888 -0.358551218736811 3.260000000000000
0.478689980192610 -0.351225588265924 3.275000000000000
0.481028618263780 -0.343922244207780 3.291000000000000
0.482636431937709 -0.336022385073694 3.302000000000000
0.481905607540469 -0.326477869800431 3.297000000000000
0.502953350180999 -0.095548231502442 3.441000000000000
0.503976504337135 -0.086293077838010 3.448000000000000
0.504268834096032 -0.076888123962005 3.450000000000000
0.504122669216584 -0.067413570265782 3.449000000000000
0.503830339457687 -0.057927692484776 3.447000000000000
0.503976504337135 -0.048494971032048 3.448000000000000
0.504561163854928 -0.039090740669689 3.452000000000000
0.504853493613824 -0.029647418645824 3.454000000000000
0.502514855542654 -0.020087961719551 3.438000000000000
0.500614712109829 -0.010625510433396 3.425000000000000
0.499445393074244 -0.001236123063094 3.417000000000000
0.497252919882522 0.008092763219197 3.402000000000000
0.496668260364729 0.017395745520519 3.398000000000000
0.498714568677003 0.026818282970572 3.412000000000000
0.496668260364729 0.036020740724500 3.398000000000000
0.495937435967489 0.045266532560855 3.393000000000000
0.494914281811352 0.054452755107074 3.386000000000000
0.493891127655215 0.063600609505435 3.379000000000000
0.496668260364729 0.073270731132463 3.398000000000000
0.495645106208592 0.082413104366843 3.391000000000000
0.490675500307356 0.090786919750278 3.357000000000000
0.485267399767775 0.126181218243506 3.320000000000000
0.545925824738747 0.285258902780594 3.735000000000000
0.545195000341507 0.295099400908777 3.730000000000000
0.545341165220955 0.305403627434322 3.731000000000000
0.545779659859299 0.315882527693581 3.734000000000000
0.546071989618195 0.326290534577923 3.736000000000000
0.545925824738747 0.336439271443684 3.735000000000000
0.546071989618195 0.346768163207139 3.736000000000000
0.547095143774332 0.357675887811536 3.743000000000000
0.547533638412677 0.368228783784524 3.746000000000000
0.547095143774332 0.378191884588611 3.743000000000000
0.545633494979851 0.387412079389179 3.733000000000000
0.544318011064818 0.396683983490734 3.724000000000000
0.543294856908681 0.406125080162023 3.717000000000000
0.510407759032853 0.429391799082453 3.492000000000000
0.507484461443890 0.436447811097165 3.472000000000000
0.505291988252169 0.444036427815811 3.457000000000000
0.504561163854928 0.452854688861727 3.452000000000000
0.503245679939895 0.461109837044995 3.443000000000000
0.502661020422102 0.469998991465828 3.439000000000000
0.501637866265965 0.478447997456740 3.432000000000000
0.500907041868725 0.487142932313106 3.427000000000000
0.500907041868725 0.496534906792806 3.427000000000000
0.501053206748173 0.506074510943144 3.428000000000000
0.501345536507069 0.515769966510088 3.430000000000000
0.500322382350932 0.524098386893441 3.423000000000000
0.500030052592036 0.533167696211967 3.421000000000000
0.498568403797555 0.540957307213760 3.411000000000000
0.496229765726385 0.547724111092232 3.395000000000000
0.492137149101837 0.552434338396102 3.367000000000000
0.466558295198416 0.584957098929529 3.192000000000000
0.467727614234001 0.595193019189555 3.200000000000000
0.467289119595656 0.603396666356067 3.197000000000000
0.466704460077864 0.611392391048163 3.193000000000000
0.465973635680623 0.619171971519872 3.188000000000000
0.465388976162830 0.627121106318138 3.184000000000000
0.465096646403934 0.635447717917377 3.182000000000000
0.464804316645038 0.643763367188656 3.180000000000000
0.464365822006694 0.651862872239549 3.177000000000000
0.464365822006694 0.660569701221751 3.177000000000000
0.464511986886142 0.669487193260361 3.178000000000000
0.464804316645038 0.678623570101347 3.180000000000000
0.464950481524486 0.687554765049906 3.181000000000000
0.465096646403934 0.696491441162445 3.182000000000000
0.465096646403934 0.705211973054598 3.182000000000000
0.465096646403934 0.713932504946750 3.182000000000000
0.466704460077864 0.725151208870716 3.193000000000000
0.467873779113449 0.735740664207451 3.201000000000000
0.469189263028482 0.746606556568353 3.210000000000000
0.469481592787378 0.755874481344858 3.212000000000000
0.470066252305170 0.765629506201937 3.216000000000000
0.472697220135237 0.778777788131087 3.234000000000000
0.508215285841131 0.865881497234753 3.477000000000000
0.506753637046650 0.872892782951388 3.467000000000000
0.518592992281948 0.903009882538656 3.548000000000000
0.497691414520866 1.398520469406883 3.405000000000000
0.495352776449696 1.401236693104148 3.389000000000000
0.493598797896319 1.405530045000356 3.377000000000000
0.492283313981285 1.411014464791743 3.368000000000000
0.491406324704597 1.417714617716218 3.362000000000000
0.491698654463493 1.427777311269821 3.364000000000000
0.490967830066252 1.434860783916072 3.359000000000000
0.490529335427908 1.442776669973635 3.356000000000000
0.489652346151219 1.449378161946471 3.350000000000000
0.490090840789564 1.459865283951700 3.353000000000000
0.490090840789564 1.469054455364141 3.353000000000000
0.489506181271771 1.476480139002319 3.349000000000000
0.488775356874530 1.483440285459020 3.344000000000000
0.488044532477290 1.490373026095822 3.339000000000000
0.487752202718394 1.498625641981331 3.337000000000000
0.487459872959497 1.506867295538881 3.335000000000000
0.486875213441705 1.514188837061438 3.331000000000000
0.486582883682809 1.522403084799088 3.329000000000000
0.485852059285568 1.529226202156290 3.324000000000000
0.485852059285568 1.538335896691021 3.324000000000000
0.485413564647224 1.546048979681325 3.321000000000000
0.485559729526672 1.555618730233553 3.322000000000000
0.485705894406120 1.565193961949760 3.323000000000000
0.485267399767775 1.572879639120164 3.320000000000000
0.485267399767775 1.581978371326935 3.320000000000000
0.485413564647224 1.591556343625132 3.321000000000000
0.484682740249983 1.643686762440872 3.316000000000000
0.486144389044464 1.657758773973241 3.326000000000000
0.476767980329212 -0.624207736114841 3.202000000000000
0.472301072331125 -0.609666317699227 3.172000000000000
0.472301072331125 -0.600973191626974 3.172000000000000
0.474683423263438 -0.595267606868995 3.188000000000000
0.477512464995560 -0.590026265737792 3.207000000000000
0.476619083395943 -0.580149778286917 3.201000000000000
0.477512464995560 -0.572448172853987 3.207000000000000
0.482128269926918 -0.569107655541731 3.238000000000000
0.486744074858275 -0.565597222146095 3.269000000000000
0.488530838057510 -0.558681593703239 3.281000000000000
0.489870910456936 -0.551197579517986 3.290000000000000
0.489870910456936 -0.542181064770915 3.290000000000000
0.490019807390206 -0.533326606118075 3.291000000000000
0.489573116590397 -0.523829404252287 3.288000000000000
0.489126425790588 -0.514348645878439 3.285000000000000
0.488084147257701 -0.504268993603482 3.278000000000000
0.486892971791544 -0.494076615710112 3.270000000000000
0.486595177925005 -0.484818206234276 3.268000000000000
0.485404002458849 -0.474697083472646 3.260000000000000
0.476767980329212 -0.422374834879935 3.202000000000000
0.479597022061335 -0.416053704444676 3.221000000000000
0.481532682193839 -0.408869860723623 3.234000000000000
0.482277166860187 -0.400625258299853 3.239000000000000
0.483021651526535 -0.392353250056182 3.244000000000000
0.482723857659996 -0.383226388515865 3.242000000000000
0.483170548459805 -0.374687820305520 3.245000000000000
0.484212826992692 -0.366583711076884 3.252000000000000
0.485850693258657 -0.358881173846078 3.263000000000000
0.487786353391162 -0.351332832720357 3.276000000000000
0.490615395123284 -0.344340259697549 3.295000000000000
0.492699952189058 -0.336734728106861 3.309000000000000
0.512652141247183 -0.095603766655887 3.443000000000000
0.513545522846800 -0.086318104832742 3.449000000000000
0.513843316713339 -0.076910410374747 3.451000000000000
0.513992213646609 -0.067472207758040 3.452000000000000
0.513694419780070 -0.057978108231064 3.450000000000000
0.514290007513148 -0.048579359032684 3.454000000000000
0.514885595246226 -0.039158685178385 3.458000000000000
0.514885595246226 -0.029681752656994 3.458000000000000
0.513694419780070 -0.020158076769183 3.450000000000000
0.513247728980261 -0.010693761887274 3.447000000000000
0.513545522846800 -0.001247699281419 3.449000000000000
0.514736698312957 0.008223598603399 3.457000000000000
0.514885595246226 0.017702909949957 3.458000000000000
0.515481182979305 0.027211282427936 3.462000000000000
0.514290007513148 0.036614372708188 3.454000000000000
0.512949935113722 0.045960272523473 3.445000000000000
0.511758759647565 0.055272923598055 3.437000000000000
0.515183389112766 0.065125217191123 3.460000000000000
0.557767912027867 0.286099022708462 3.746000000000000
0.556427839628441 0.295653206754986 3.737000000000000
0.555981148828632 0.305649194542953 3.734000000000000
0.556427839628441 0.316136316548182 3.737000000000000
0.556576736561710 0.326465208311637 3.738000000000000
0.556725633494980 0.336799581239072 3.739000000000000
0.556725633494980 0.347046617299650 3.739000000000000
0.557767912027867 0.357962563650017 3.746000000000000
0.558512396694215 0.368720279758609 3.751000000000000
0.558512396694215 0.379000202803067 3.751000000000000
0.557619015094597 0.388657443694743 3.745000000000000
0.556576736561710 0.398175276661752 3.738000000000000
0.556576736561710 0.408419572140340 3.738000000000000
0.556576736561710 0.418663867618927 3.738000000000000
0.555981148828632 0.428449192350487 3.734000000000000
0.522032648043167 0.431113301140630 3.506000000000000
0.517565740045079 0.436950631156032 3.476000000000000
0.516076770712383 0.445192438186173 3.466000000000000
0.514885595246226 0.453641805933908 3.458000000000000
0.513843316713339 0.462181251130490 3.451000000000000
0.513098832046991 0.470955662864566 3.446000000000000
0.512354347380643 0.479702668778742 3.441000000000000
0.511609862714296 0.488422268873018 3.436000000000000
0.510716481114678 0.496969574058747 3.430000000000000
0.510120893381600 0.505779251601870 3.426000000000000
0.510865378047948 0.515920336762715 3.431000000000000
0.511312068847756 0.525782606074226 3.434000000000000
0.511014274981217 0.534882061794643 3.432000000000000
0.510120893381600 0.543336187192712 3.426000000000000
0.508780820982173 0.551273427865141 3.417000000000000
0.506696263916399 0.558340972248867 3.403000000000000
0.475427907929786 0.585140356166035 3.193000000000000
0.476767980329212 0.595565014826549 3.202000000000000
0.476321289529404 0.603774143157041 3.199000000000000
0.475279010996517 0.611200912065686 3.192000000000000
0.475576804863056 0.620337288906672 3.194000000000000
0.475427907929786 0.628893747636248 3.193000000000000
0.474832320196708 0.636845623016504 3.189000000000000
0.473790041663821 0.644168249809529 3.182000000000000
0.473343350864012 0.652273236024402 3.179000000000000
0.473641144730551 0.661401391119418 3.181000000000000
0.473492247797282 0.669908519373174 3.180000000000000
0.473641144730551 0.678836973739743 3.181000000000000
0.474087835530360 0.688203197711066 3.184000000000000
0.474385629396899 0.697366980371952 3.186000000000000
0.474385629396899 0.706098474592064 3.186000000000000
0.474683423263438 0.715278700744890 3.188000000000000
0.475874598729595 0.725832528515756 3.196000000000000
0.477363568062291 0.736889899859134 3.206000000000000
0.477959155795369 0.746606556568353 3.210000000000000
0.478703640461717 0.756580466227808 3.215000000000000
0.479150331261526 0.766105643954550 3.218000000000000
0.481681579127109 0.779018597589384 3.235000000000000
0.487190765658084 0.796895731817609 3.272000000000000
0.508185233249095 1.401806273740291 3.413000000000000
0.504909500717164 1.402063625351480 3.391000000000000
0.502676046718120 1.405113838294700 3.376000000000000
0.501484871251964 1.411014464791743 3.368000000000000
0.500889283518885 1.418557993455490 3.364000000000000
0.501633768185233 1.429899453527951 3.369000000000000
0.500889283518885 1.436996629084152 3.364000000000000
0.500442592719077 1.444926218051665 3.361000000000000
0.500144798852537 1.453272013724834 3.359000000000000
0.500144798852537 1.462477628629216 3.359000000000000
0.499102520319650 1.468616324002565 3.352000000000000
0.498209138720033 1.475157523171621 3.346000000000000
0.498506932586572 1.485214735561244 3.348000000000000
0.497911344853494 1.492604791633551 3.344000000000000
0.497613550986954 1.500871110429010 3.342000000000000
0.496571272454067 1.506867295538881 3.335000000000000
0.496273478587528 1.515097986768470 3.333000000000000
0.495677890854450 1.522403084799088 3.329000000000000
0.495380096987911 1.530606370208778 3.327000000000000
0.494933406188102 1.538335896691021 3.324000000000000
0.494784509254832 1.546980054044277 3.323000000000000
0.494635612321563 1.555618730233553 3.322000000000000
0.494784509254832 1.565193961949760 3.323000000000000
0.494635612321563 1.573827156975055 3.322000000000000
0.494486715388293 1.582454870836371 3.321000000000000
0.494635612321563 1.592035583716558 3.322000000000000
0.492699952189058 1.640216977357311 3.309000000000000
0.494635612321563 1.655765077311818 3.322000000000000
0.487790451471894 -0.627131882286522 3.217000000000000
0.481118776039888 -0.609858520195349 3.173000000000000
0.481270405026979 -0.601352115455238 3.174000000000000
0.484909500717164 -0.597134820190416 3.198000000000000
0.487487193497712 -0.591498111739009 3.215000000000000
0.486577419575166 -0.581599699632214 3.209000000000000
0.487335564510621 -0.573697669957192 3.214000000000000
0.491884434123352 -0.570162209566824 3.244000000000000
0.495068642852264 -0.564905148457326 3.265000000000000
0.496584932723175 -0.557659926662026 3.275000000000000
0.498101222594085 -0.550359893226926 3.285000000000000
0.498859367529540 -0.542181064770915 3.290000000000000
0.498859367529540 -0.533164550023843 3.290000000000000
0.498707738542449 -0.523988719764529 3.289000000000000
0.498404480568267 -0.514661795738943 3.287000000000000
0.498101222594085 -0.505345834041317 3.285000000000000
0.497039819684448 -0.495285365840290 3.278000000000000
0.496584932723175 -0.485856678524251 3.275000000000000
0.494007239942627 -0.474405858268062 3.258000000000000
0.485970903626801 -0.422770563956962 3.205000000000000
0.488851854381531 -0.416441211775733 3.224000000000000
0.491126289187897 -0.409502003365435 3.239000000000000
0.491732805136261 -0.401120010085342 3.243000000000000
0.492339321084625 -0.392716092149329 3.247000000000000
0.492187692097534 -0.383699215645434 3.246000000000000
0.492187692097534 -0.374803286505922 3.246000000000000
0.493400723994263 -0.366809162313709 3.254000000000000
0.494917013865173 -0.358991158882500 3.264000000000000
0.497494706645721 -0.351869054992518 3.281000000000000
0.500375657400451 -0.344862779059761 3.300000000000000
0.504621269039000 -0.338668230625456 3.328000000000000
0.514628782187009 -0.336083072521281 3.394000000000000
0.521755344580288 -0.095548231502442 3.441000000000000
0.523120005464108 -0.086343131827475 3.450000000000000
0.523271634451199 -0.076910410374747 3.451000000000000
0.523574892425381 -0.067491753588792 3.453000000000000
0.523120005464108 -0.057978108231064 3.450000000000000
0.523574892425381 -0.048565294365912 3.453000000000000
0.523878150399563 -0.039124712924037 3.455000000000000
0.524333037360836 -0.029681752656994 3.458000000000000
0.523726521412472 -0.020181448452393 3.454000000000000
0.523878150399563 -0.010718580597776 3.455000000000000
0.524484666347927 -0.001251316849646 3.459000000000000
0.525697698244655 0.008247386855072 3.467000000000000
0.525697698244655 0.017748984614373 3.467000000000000
0.526152585205929 0.027274162341115 3.470000000000000
0.526304214193020 0.036794582417522 3.471000000000000
0.524484666347927 0.046147048667255 3.459000000000000
0.567698927668875 0.285946273630668 3.744000000000000
0.566334266785056 0.295494976513212 3.735000000000000
0.566182637797965 0.305649194542953 3.734000000000000
0.566789153746329 0.316220912833049 3.738000000000000
0.566940782733420 0.326552545178494 3.739000000000000
0.567244040707602 0.336979736136766 3.741000000000000
0.567698927668875 0.347510707453835 3.744000000000000
0.568608701591421 0.358344798101325 3.750000000000000
0.569063588552695 0.368916878148243 3.753000000000000
0.568760330578512 0.379000202803067 3.751000000000000
0.568305443617239 0.388968784771134 3.748000000000000
0.567850556655966 0.398920923247261 3.745000000000000
0.568153814630148 0.409402925845332 3.747000000000000
0.568911959565603 0.420231897085665 3.752000000000000
0.568153814630148 0.429940847278328 3.747000000000000
0.567395669694693 0.439622391651091 3.742000000000000
0.529336793934841 0.438836206376786 3.491000000000000
0.525849327231746 0.445449329379587 3.468000000000000
0.525546069257564 0.454691295363483 3.466000000000000
0.524181408373745 0.462984811694611 3.457000000000000
0.523271634451199 0.471638999577950 3.451000000000000
0.522513489515744 0.480399708402076 3.446000000000000
0.522058602554470 0.489417308419616 3.443000000000000
0.520693941670651 0.497549130413335 3.434000000000000
0.520087425722287 0.506369770284418 3.430000000000000
0.520542312683560 0.516221077267969 3.433000000000000
0.520997199644833 0.526088827743459 3.436000000000000
0.520845570657742 0.535349616044463 3.435000000000000
0.520390683696469 0.544287739184293 3.432000000000000
0.520239054709378 0.553532083993357 3.431000000000000
0.519480909773923 0.562114654988133 3.426000000000000
0.485516016665528 0.586789671294596 3.202000000000000
0.486880677549348 0.597238995193019 3.211000000000000
0.486425790588075 0.605472788761421 3.208000000000000
0.485061129704255 0.612541264943023 3.199000000000000
0.485212758691346 0.621502606293472 3.200000000000000
0.485061129704255 0.630075508514988 3.199000000000000
0.484302984768800 0.637844126658737 3.194000000000000
0.482786694897890 0.644573132430403 3.184000000000000
0.481876920975343 0.652068054131975 3.178000000000000
0.482028549962434 0.660985546170585 3.179000000000000
0.482331807936616 0.670119182429581 3.181000000000000
0.482483436923707 0.679050377378140 3.182000000000000
0.482938323884981 0.688419341931452 3.185000000000000
0.483241581859163 0.697585865174328 3.187000000000000
0.483241581859163 0.706320099976431 3.187000000000000
0.484151355781709 0.716400530576673 3.193000000000000
0.485516016665528 0.727195167805835 3.202000000000000
0.486880677549348 0.738039135510817 3.211000000000000
0.487335564510621 0.747536907417659 3.214000000000000
0.487790451471894 0.757051122816441 3.217000000000000
0.488245338433167 0.766581781707163 3.220000000000000
0.490671402226624 0.779259407047681 3.236000000000000
0.494462126903900 0.794216681374457 3.261000000000000
0.514325524212827 1.402477091475145 3.392000000000000
0.511596202445188 1.404281424883388 3.374000000000000
0.510838057509733 1.411433412079389 3.369000000000000
0.510838057509733 1.420666432803670 3.369000000000000
0.511899460419370 1.432870452689333 3.376000000000000
0.510989686496824 1.439559643285848 3.370000000000000
0.510686428522642 1.447935585360907 3.368000000000000
0.510231541561369 1.455867914910410 3.365000000000000
0.510534799535551 1.465960754865903 3.367000000000000
0.509321767638823 1.471683243533597 3.359000000000000
0.508715251690458 1.479125370663714 3.355000000000000
0.508715251690458 1.488320023240135 3.355000000000000
0.508260364729185 1.496175616493919 3.352000000000000
0.507653848780821 1.503565672566226 3.348000000000000
0.507198961819548 1.511385638254140 3.345000000000000
0.506895703845366 1.519643735303629 3.343000000000000
0.506137558909911 1.526518923718641 3.338000000000000
0.505227784987364 1.532906650296257 3.332000000000000
0.504469640051909 1.539724286489479 3.327000000000000
0.504014753090636 1.547445591225753 3.324000000000000
0.503256608155181 1.554213896943155 3.319000000000000
0.502953350180999 1.562367851877024 3.317000000000000
0.502498463219725 1.570037085555488 3.314000000000000
0.502953350180999 1.580548872798627 3.317000000000000
0.503711495116454 1.592035583716558 3.322000000000000
0.502043576258452 1.641208344524043 3.311000000000000
0.503104979168090 1.653771380650395 3.318000000000000
0.502953350180999 1.662363466945841 3.317000000000000
0.505076156000273 1.678508652017342 3.331000000000000
0.508715251690458 1.699797032497821 3.355000000000000
0.488707055528994 -0.617189785302807 3.166000000000000
0.489015777610819 -0.608897507714738 3.168000000000000
0.489941943856294 -0.601352115455238 3.174000000000000
0.492874803633632 -0.596201213529705 3.193000000000000
0.495190219247319 -0.590210246487944 3.208000000000000
0.494264053001844 -0.580331018455079 3.202000000000000
0.497659995901919 -0.575482665818913 3.224000000000000
0.502445188170207 -0.572095558612827 3.255000000000000
0.504914964824807 -0.565943258990479 3.271000000000000
0.505841131070282 -0.558000482342430 3.277000000000000
0.506921658356670 -0.550192355968714 3.284000000000000
0.508310907724882 -0.542675454799581 3.293000000000000
0.508310907724882 -0.533650718306540 3.293000000000000
0.507847824602145 -0.524148035276771 3.290000000000000
0.507847824602145 -0.515131520529700 3.290000000000000
0.507693463561232 -0.505961171434366 3.289000000000000
0.507076019397582 -0.496343022204195 3.285000000000000
0.505378047947545 -0.485708325339969 3.274000000000000
0.502908271292944 -0.474405858268062 3.258000000000000
0.495653302370057 -0.423562022111015 3.211000000000000
0.498586162147394 -0.417216226437846 3.230000000000000
0.500284133597432 -0.409754860422159 3.241000000000000
0.500592855679257 -0.401120010085342 3.243000000000000
0.500901577761082 -0.392474197420564 3.245000000000000
0.501210299842907 -0.383817422427827 3.247000000000000
0.501982105047469 -0.375496083708336 3.252000000000000
0.503062632333857 -0.367372790405771 3.259000000000000
0.504606242742982 -0.359541084064612 3.269000000000000
0.507693463561232 -0.352727010627977 3.289000000000000
0.511552489584045 -0.346325833273954 3.314000000000000
0.531465063861758 -0.095603766655887 3.443000000000000
0.532854313229971 -0.086393185816940 3.452000000000000
0.532854313229971 -0.076932696787490 3.452000000000000
0.532699952189058 -0.067452661927287 3.451000000000000
0.533008674270883 -0.058028523977352 3.453000000000000
0.533471757393621 -0.048607488366229 3.456000000000000
0.534089201557271 -0.039181333347950 3.460000000000000
0.534706645720921 -0.029733253673750 3.464000000000000
0.535015367802746 -0.020251563502025 3.466000000000000
0.535169728843658 -0.010755808663528 3.467000000000000
0.534861006761833 -0.001253487390582 3.465000000000000
0.534552284680008 0.008237871554403 3.463000000000000
0.534089201557271 0.017713148764272 3.460000000000000
0.535787173007308 0.027282022330262 3.471000000000000
0.577155931971860 0.285564400936183 3.739000000000000
0.576384126767297 0.295415861392325 3.734000000000000
0.576538487808210 0.305731050245830 3.735000000000000
0.577464654053685 0.316474701687650 3.741000000000000
0.577155931971860 0.326552545178494 3.739000000000000
0.577310293012772 0.336889658687919 3.740000000000000
0.577464654053685 0.347232253361324 3.741000000000000
0.578236459258247 0.357962563650017 3.746000000000000
0.578699542380985 0.368523681368975 3.749000000000000
0.578853903421897 0.378899163026260 3.750000000000000
0.579008264462810 0.389280125847525 3.751000000000000
0.578390820299160 0.399133965128835 3.747000000000000
0.578545181340072 0.409512187368109 3.748000000000000
0.579162625503722 0.420231897085665 3.752000000000000
0.579471347585547 0.430744046085627 3.754000000000000
0.579780069667373 0.441267157413548 3.756000000000000
0.579780069667373 0.451560783367956 3.756000000000000
0.533780479475446 0.472595670976689 3.458000000000000
0.533934840516358 0.482212011422746 3.459000000000000
0.533317396352708 0.491123090499498 3.455000000000000
0.531773785943583 0.499142910388450 3.445000000000000
0.530847619698108 0.507698437320149 3.439000000000000
0.530384536575371 0.516672188025849 3.436000000000000
0.530384536575371 0.526088827743459 3.436000000000000
0.530230175534458 0.535349616044463 3.435000000000000
0.531001980739021 0.545556475173068 3.440000000000000
0.531465063861758 0.555468074960399 3.443000000000000
0.531619424902671 0.565067971914516 3.444000000000000
0.495498941329144 0.588255729186650 3.210000000000000
0.497042551738269 0.598912975559490 3.220000000000000
0.496116385492794 0.606605219164342 3.214000000000000
0.494418414042757 0.613307180872930 3.203000000000000
0.494727136124582 0.622473704115806 3.205000000000000
0.494572775083669 0.631060309247272 3.204000000000000
0.493337886756369 0.638243528115631 3.196000000000000
0.491176832183594 0.644168249809529 3.182000000000000
0.490713749060857 0.652273236024402 3.179000000000000
0.491176832183594 0.661609313593835 3.182000000000000
0.492102998429069 0.671593823824427 3.188000000000000
0.491794276347244 0.679903991931726 3.186000000000000
0.491639915306332 0.688419341931452 3.185000000000000
0.491485554265419 0.696929210767198 3.184000000000000
0.492102998429069 0.706541725360798 3.188000000000000
0.493646608838194 0.717522360408456 3.198000000000000
0.494881497165494 0.728103593999222 3.206000000000000
0.495962024451882 0.738498829771490 3.213000000000000
0.495962024451882 0.747304319705333 3.213000000000000
0.497196912779182 0.757992435993708 3.221000000000000
0.497968717983744 0.768010194965003 3.226000000000000
0.499821050474694 0.779741025964274 3.238000000000000
0.502136466088382 0.792268281052164 3.253000000000000
0.522203401407008 1.417298674106433 3.383000000000000
0.521740318284270 1.425304999369666 3.380000000000000
0.521585957243358 1.434143738044211 3.379000000000000
0.520042346834233 1.439132474252232 3.369000000000000
0.520042346834233 1.448365494976513 3.369000000000000
0.520196707875145 1.458031165898390 3.370000000000000
0.520505429956970 1.468137708763833 3.372000000000000
0.519733624752408 1.475188294426204 3.367000000000000
