# This PCD file was generated using the MATLAB® pcwrite function
# from Computer Vision System Toolbox®.
# .PCD v.7 - Point Cloud Data file format
VERSION .7
FIELDS x y z
SIZE 8 8 8
TYPE F F F
COUNT 1 1 1
WIDTH 861
HEIGHT 1
VIEWPOINT 0 0 0 1 0 0 0
POINTS 861
DATA ascii
-0.237078068437948 -0.644738893791486 3.403000000000000
-0.236938733693054 -0.635039250615261 3.401000000000000
-0.236242059968581 -0.623878723765779 3.391000000000000
-0.235824055733898 -0.613497969228745 3.385000000000000
-0.235963390478792 -0.604578098364969 3.387000000000000
-0.236451062085923 -0.596526060194143 3.394000000000000
-0.236033057851240 -0.586186414386959 3.388000000000000
-0.235266716754320 -0.575028266362645 3.377000000000000
-0.235057714636978 -0.565270709207807 3.374000000000000
-0.234779045147189 -0.555364798868688 3.370000000000000
-0.234430708284953 -0.545318757091256 3.365000000000000
-0.234012704050270 -0.535140805621482 3.359000000000000
-0.233873369305375 -0.525622040856596 3.357000000000000
-0.233594699815586 -0.515806569723146 3.353000000000000
-0.233455365070692 -0.506315210778161 3.351000000000000
-0.233176695580903 -0.496538107792571 3.347000000000000
-0.233455365070692 -0.487947830281239 3.351000000000000
-0.233664367188034 -0.479192756093684 3.354000000000000
-0.233594699815586 -0.469860712660941 3.353000000000000
-0.233176695580903 -0.459847196110566 3.347000000000000
-0.233385697698245 -0.451078419013062 3.350000000000000
-0.233107028208456 -0.441369830577221 3.346000000000000
-0.231295676524828 -0.392446517542465 3.320000000000000
-0.232619356601325 -0.385541643143338 3.339000000000000
-0.232271019739089 -0.375827211786695 3.334000000000000
-0.232340687111536 -0.366800096468486 3.335000000000000
-0.232480021856431 -0.357874744440729 3.337000000000000
-0.232758691346220 -0.349147437829898 3.341000000000000
-0.232619356601325 -0.339787626820432 3.339000000000000
-0.232410354483983 -0.330339755430463 3.336000000000000
-0.232340687111536 -0.321100891785380 3.335000000000000
-0.232480021856431 -0.312148133937723 3.337000000000000
-0.232201352366642 -0.302639607987152 3.333000000000000
-0.232480021856431 -0.293857489736520 3.337000000000000
-0.232410354483983 -0.284626847837407 3.336000000000000
-0.232131684994194 -0.275153949452706 3.332000000000000
-0.232271019739089 -0.266182007531119 3.334000000000000
-0.232689023973772 -0.257507495491743 3.340000000000000
-0.233037360836008 -0.248725738997934 3.345000000000000
-0.232271019739089 -0.238770706467225 3.334000000000000
-0.229762994330988 -0.191000301464019 3.298000000000000
-0.235615053616556 -0.140253185926563 3.382000000000000
-0.233316030325797 0.072214149076698 3.349000000000000
-0.230320333310566 0.152830220945720 3.306000000000000
-0.230599002800355 0.298156355683693 3.310000000000000
-0.230041663820777 0.306485137823868 3.302000000000000
-0.230599002800355 0.316299008457436 3.310000000000000
-0.231017007035039 0.325960130013210 3.316000000000000
-0.230738337545250 0.334643740784793 3.312000000000000
-0.230599002800355 0.343512987618050 3.310000000000000
-0.230041663820777 0.351732146478626 3.302000000000000
-0.230320333310566 0.361218594300686 3.306000000000000
-0.230459668055461 0.370502962569131 3.308000000000000
-0.230668670172802 0.379913035852294 3.311000000000000
-0.231017007035039 0.389574519164890 3.316000000000000
-0.230529335427908 0.397820722088543 3.309000000000000
-0.230599002800355 0.407012272326151 3.310000000000000
-0.230111331193225 0.415203663610004 3.303000000000000
-0.230390000683013 0.424769588309773 3.307000000000000
-0.230041663820777 0.433176762057190 3.302000000000000
-0.230180998565672 0.442494017309516 3.304000000000000
-0.229832661703436 0.450865563491063 3.299000000000000
-0.229553992213647 0.459349111777377 3.295000000000000
-0.229344990096305 0.467952883914428 3.292000000000000
-0.229135987978963 0.476540212559539 3.289000000000000
-0.229344990096305 0.485996875736531 3.292000000000000
-0.229275322723858 0.494868501394956 3.291000000000000
-0.229275322723858 0.503887756724018 3.291000000000000
-0.229135987978963 0.512595309219866 3.289000000000000
-0.229135987978963 0.521609083384947 3.289000000000000
-0.229205655351410 0.530784190130616 3.290000000000000
-0.229553992213647 0.540621070690572 3.295000000000000
-0.229344990096305 0.549150847113893 3.292000000000000
-0.229344990096305 0.558172843024945 3.292000000000000
-0.228787651116727 0.565816479667622 3.284000000000000
-0.230529335427908 0.633603953015462 3.309000000000000
-0.231086674407486 0.644226295336078 3.317000000000000
-0.231853015504405 0.655483367407903 3.328000000000000
-0.232271019739089 0.665802228641274 3.334000000000000
-0.232271019739089 0.674939328995905 3.334000000000000
-0.232619356601325 0.721705551870995 3.339000000000000
-0.236033057851240 0.769436985798304 3.388000000000000
-0.226697629943310 0.792511831092451 3.254000000000000
-0.235406051499215 0.841476439216632 3.379000000000000
-0.230390000683013 1.004808285327472 3.307000000000000
-0.229066320606516 1.008046304873303 3.288000000000000
-0.232410354483983 1.031904890842619 3.336000000000000
-0.234709377774742 1.060578624556711 3.369000000000000
-0.232131684994194 1.058062452382388 3.332000000000000
-0.230599002800355 1.060147772180900 3.310000000000000
-0.230529335427908 1.068896071649776 3.309000000000000
-0.230947339662591 1.079919262454575 3.315000000000000
-0.231783348131958 1.092946388735112 3.327000000000000
-0.231992350249300 1.103058051007712 3.330000000000000
-0.231713680759511 1.110848232050558 3.326000000000000
-0.231226009152380 1.117606298953646 3.319000000000000
-0.231156341779933 1.126362820168491 3.318000000000000
-0.230459668055461 1.132033961292020 3.308000000000000
-0.230250665938119 1.140064951793163 3.305000000000000
-0.229832661703436 1.147036422334647 3.299000000000000
-0.230180998565672 1.157829766009110 3.304000000000000
-0.229971996448330 1.165825128944382 3.301000000000000
-0.229623659586094 1.173092220583963 3.296000000000000
-0.229484324841199 1.181407869855242 3.294000000000000
-0.229484324841199 1.190435346930274 3.294000000000000
-0.229344990096305 1.198734552709613 3.292000000000000
-0.229066320606516 1.206289043701320 3.288000000000000
-0.229344990096305 1.216778544531717 3.292000000000000
-0.229135987978963 1.224683468261320 3.289000000000000
-0.228090977392255 1.228070772789309 3.274000000000000
-0.227603305785124 1.288119456487780 3.267000000000000
-0.228926985861622 1.304616367851877 3.286000000000000
-0.228996653234069 1.314021683484705 3.287000000000000
-0.229693326958541 1.327055014442867 3.297000000000000
-0.230111331193225 1.338522179530045 3.303000000000000
-0.230041663820777 1.347166336883301 3.302000000000000
-0.230180998565672 1.357037189697604 3.304000000000000
-0.230250665938119 1.366505538716202 3.305000000000000
-0.230738337545250 1.378476609132715 3.312000000000000
-0.230668670172802 1.387134469395921 3.311000000000000
-0.230111331193225 1.392835033407694 3.303000000000000
-0.229135987978963 1.395945177397872 3.289000000000000
-0.227580083327642 -0.737350295708797 3.400000000000000
-0.228918789700157 -0.732314859983666 3.420000000000000
-0.228717983744280 -0.722307909867740 3.417000000000000
-0.228651048425654 -0.712734695219877 3.416000000000000
-0.227780889283519 -0.700696096863130 3.403000000000000
-0.227446212690390 -0.690354072230779 3.398000000000000
-0.227245406734513 -0.680440301902512 3.395000000000000
-0.227847824602145 -0.672915178987410 3.404000000000000
-0.227847824602145 -0.663586237893479 3.404000000000000
-0.227647018646267 -0.653680689311182 3.401000000000000
-0.227044600778635 -0.642654812736033 3.392000000000000
-0.227044600778635 -0.633358758625982 3.392000000000000
-0.227312342053138 -0.624798627516539 3.396000000000000
-0.226977665460010 -0.614585410237718 3.391000000000000
-0.226442182911003 -0.603864100020280 3.383000000000000
-0.226509118229629 -0.594768470152322 3.384000000000000
-0.226040570999249 -0.584283211742846 3.377000000000000
-0.225772829724746 -0.574347155001836 3.373000000000000
-0.225371217812991 -0.564097948400322 3.367000000000000
-0.225371217812991 -0.554870408840021 3.367000000000000
-0.225237347175739 -0.545318757091256 3.365000000000000
-0.225170411857114 -0.535937383182693 3.364000000000000
-0.224768799945359 -0.525778615786848 3.358000000000000
-0.224567993989482 -0.516114238419671 3.355000000000000
-0.223831705484598 -0.505257554414255 3.344000000000000
-0.223095416979715 -0.494461163212620 3.333000000000000
-0.223028481661089 -0.485181190837686 3.332000000000000
-0.223965576121850 -0.478049779931266 3.346000000000000
-0.224367188033604 -0.469720581222628 3.352000000000000
-0.224032511440475 -0.459847196110566 3.347000000000000
-0.223563964210095 -0.449731916269739 3.340000000000000
-0.222359128474831 -0.392682931107250 3.322000000000000
-0.223563964210095 -0.385657109343740 3.340000000000000
-0.223028481661089 -0.375601760549870 3.332000000000000
-0.223162352298340 -0.366690111432064 3.334000000000000
-0.222961546342463 -0.357231277714135 3.331000000000000
-0.223162352298340 -0.348415910722801 3.334000000000000
-0.223229287616966 -0.339380573658622 3.335000000000000
-0.223095416979715 -0.330042687305076 3.333000000000000
-0.223363158254218 -0.321293456038324 3.337000000000000
-0.223296222935592 -0.312054592393241 3.336000000000000
-0.223363158254218 -0.303002811837122 3.337000000000000
-0.223430093572843 -0.293945550117023 3.338000000000000
-0.223296222935592 -0.284626847837407 3.336000000000000
-0.223095416979715 -0.275236528669228 3.333000000000000
-0.223095416979715 -0.266102168896587 3.333000000000000
-0.223296222935592 -0.257199103281573 3.336000000000000
-0.223095416979715 -0.247833449351304 3.333000000000000
-0.222359128474831 -0.237911303804476 3.322000000000000
-0.223162352298340 -0.229633606112594 3.334000000000000
-0.224099446759101 -0.221422405902117 3.348000000000000
-0.225036541219862 -0.213134469395921 3.362000000000000
-0.227111536097261 -0.205800924124247 3.393000000000000
-0.222760740386586 -0.119772465920863 3.328000000000000
-0.216067208524008 0.078451636949623 3.228000000000000
-0.220284133597432 0.134098288232489 3.291000000000000
-0.218811556587665 0.160078742401736 3.269000000000000
-0.218811556587665 0.285504217755683 3.269000000000000
-0.218878491906291 0.294553257729811 3.270000000000000
-0.219882521685677 0.304907231299639 3.285000000000000
-0.220418004234683 0.314674512039377 3.293000000000000
-0.221154292739567 0.324780539675405 3.304000000000000
-0.221087357420941 0.333734382793530 3.303000000000000
-0.221087357420941 0.342786525106472 3.303000000000000
-0.220551874871935 0.350986499893117 3.295000000000000
-0.220886551465064 0.360563025164024 3.300000000000000
-0.221355098695444 0.370390960464364 3.307000000000000
-0.221756710607199 0.380142521225807 3.313000000000000
-0.221689775288573 0.389104586089902 3.312000000000000
-0.220953486783690 0.396858931282647 3.301000000000000
-0.220551874871935 0.405167805835247 3.295000000000000
-0.220551874871935 0.414198023492269 3.295000000000000
-0.220819616146438 0.423742023536118 3.299000000000000
-0.220752680827812 0.432652017342403 3.298000000000000
-0.220551874871935 0.441288676463334 3.295000000000000
-0.220418004234683 0.450045559435002 3.293000000000000
-0.219882521685677 0.457955032530708 3.285000000000000
-0.219480909773923 0.466104953327889 3.279000000000000
-0.219347039136671 0.474801543495777 3.277000000000000
-0.219681715729800 0.484520579030163 3.282000000000000
-0.219815586367051 0.493815909626568 3.284000000000000
-0.219748651048426 0.502662870047083 3.283000000000000
-0.219882521685677 0.511971903553439 3.285000000000000
-0.220083327641555 0.521450491386351 3.288000000000000
-0.220150262960180 0.530622857550029 3.289000000000000
-0.220484939553309 0.540456997527995 3.294000000000000
-0.220551874871935 0.549651288347593 3.295000000000000
-0.220618810190561 0.558851060331172 3.296000000000000
-0.219815586367051 0.565816479667622 3.284000000000000
-0.220685745509187 0.622270506404740 3.297000000000000
-0.221689775288573 0.634178389962892 3.312000000000000
-0.222225257837579 0.644808954029478 3.320000000000000
-0.222158322518954 0.653710726089792 3.319000000000000
-0.222359128474831 0.663405819899914 3.322000000000000
-0.222492999112083 0.672914915891539 3.324000000000000
-0.226308312273752 0.749315424543556 3.381000000000000
-0.224099446759101 0.751177255361948 3.348000000000000
-0.228651048425654 0.775795969152009 3.416000000000000
-0.219882521685677 0.818067506015577 3.285000000000000
-0.224367188033604 0.843939027531887 3.352000000000000
-0.219614780411174 0.978924672363423 3.281000000000000
-0.220752680827812 1.002073699730875 3.298000000000000
-0.224701864626733 1.029200561271192 3.357000000000000
-0.224367188033604 1.036854074971361 3.352000000000000
-0.223630899528721 1.042607795311412 3.341000000000000
-0.223430093572843 1.059967726906486 3.338000000000000
-0.222091387200328 1.062710062868951 3.318000000000000
-0.221622839969947 1.069542125485768 3.311000000000000
-0.221823645925825 1.079593494954589 3.314000000000000
-0.222426063793457 1.091632356407206 3.323000000000000
-0.222359128474831 1.100408061695982 3.322000000000000
-0.222024451881702 1.107842328836952 3.317000000000000
-0.221422034014070 1.113902270846237 3.308000000000000
-0.221355098695444 1.122628645659192 3.307000000000000
-0.221221228058193 1.131007328316241 3.305000000000000
-0.221422034014070 1.141099806514911 3.308000000000000
-0.221020422102315 1.148079498802366 3.302000000000000
-0.220953486783690 1.156778467795421 3.301000000000000
-0.220752680827812 1.164765608984724 3.298000000000000
-0.220819616146438 1.174159962289592 3.299000000000000
-0.220618810190561 1.182125178822975 3.296000000000000
-0.220351068916058 1.189712556798562 3.292000000000000
-0.220284133597432 1.198370417061767 3.291000000000000
-0.220351068916058 1.207756548620665 3.292000000000000
-0.220685745509187 1.218626628590848 3.297000000000000
-0.220284133597432 1.225428183048952 3.291000000000000
-0.218811556587665 1.226195282910279 3.269000000000000
-0.216736561710266 1.276685277045433 3.238000000000000
-0.217272044259272 1.288735462582834 3.246000000000000
-0.220819616146438 1.318818842049297 3.299000000000000
-0.220886551465064 1.328262525829985 3.300000000000000
-0.220752680827812 1.336495957641565 3.298000000000000
-0.220819616146438 1.345942382004242 3.299000000000000
-0.221288163376819 1.357858640780956 3.306000000000000
-0.221555904651322 1.368572869334532 3.310000000000000
-0.222158322518954 1.381390056072307 3.319000000000000
-0.221689775288573 1.387553416683567 3.312000000000000
-0.221221228058193 1.393678409146967 3.305000000000000
-0.219748651048426 1.393398606688116 3.283000000000000
-0.217905880745851 -0.736049089304605 3.394000000000000
-0.219960385219589 -0.733599622895918 3.426000000000000
-0.219189946041937 -0.721673750157584 3.414000000000000
-0.219382555836350 -0.712943341207939 3.417000000000000
-0.218419506864285 -0.700490191457058 3.402000000000000
-0.217584864421829 -0.688525588814041 3.389000000000000
-0.217135441568199 -0.677834786755315 3.382000000000000
-0.217713270951438 -0.670345291406083 3.391000000000000
-0.217970084010655 -0.661831750190470 3.395000000000000
-0.217905880745851 -0.652335271838328 3.394000000000000
-0.217392254627416 -0.641518041251240 3.386000000000000
-0.217392254627416 -0.632238430633129 3.386000000000000
-0.217456457892220 -0.623142800765170 3.387000000000000
-0.217392254627416 -0.613679209396908 3.386000000000000
-0.216942831773786 -0.603150101675592 3.379000000000000
-0.216686018714569 -0.593186639114682 3.375000000000000
-0.216429205655351 -0.583245101209693 3.371000000000000
-0.216365002390547 -0.573836321481230 3.370000000000000
-0.215722969742504 -0.562925187592837 3.360000000000000
-0.215722969742504 -0.553716832106466 3.360000000000000
-0.215273546888874 -0.543374083960470 3.353000000000000
-0.215530359948091 -0.534822174596997 3.357000000000000
-0.215273546888874 -0.524995741135588 3.353000000000000
-0.215209343624069 -0.515652735374884 3.352000000000000
-0.214695717505635 -0.505257554414255 3.344000000000000
-0.213989481592787 -0.494461163212620 3.333000000000000
-0.214053684857592 -0.485472416042271 3.334000000000000
-0.214438904446418 -0.477192547809453 3.340000000000000
-0.214695717505635 -0.468599529716131 3.344000000000000
-0.214182091387200 -0.458335896691021 3.336000000000000
-0.214117888122396 -0.449058664898078 3.335000000000000
-0.212962229355918 -0.392091897195288 3.317000000000000
-0.214246294652005 -0.385310710742533 3.337000000000000
-0.213925278327983 -0.375601760549870 3.332000000000000
-0.213989481592787 -0.366580126395641 3.333000000000000
-0.213668465268766 -0.356909544350838 3.328000000000000
-0.213861075063179 -0.348102399105474 3.331000000000000
-0.213732668533570 -0.338769993915908 3.329000000000000
-0.213668465268766 -0.329547573762764 3.328000000000000
-0.213925278327983 -0.320812045405962 3.332000000000000
-0.213925278327983 -0.311680426215311 3.332000000000000
-0.214117888122396 -0.302821209912137 3.335000000000000
-0.214182091387200 -0.293769429356018 3.336000000000000
-0.214182091387200 -0.284626847837407 3.336000000000000
-0.213989481592787 -0.275236528669228 3.333000000000000
-0.213861075063179 -0.265942491627522 3.331000000000000
-0.213668465268766 -0.256582318861233 3.328000000000000
-0.213475855474353 -0.247238589586885 3.325000000000000
-0.213090635885527 -0.237696453138789 3.319000000000000
-0.212255993443071 -0.200523977351830 3.306000000000000
-0.211613960795028 -0.010225308726561 3.296000000000000
-0.208082781230790 0.069885355974195 3.241000000000000
-0.209110033467659 0.284456175353398 3.257000000000000
-0.209559456321290 0.294012793036729 3.264000000000000
-0.210458302028550 0.304257505083780 3.278000000000000
-0.211164537941397 0.314292277588069 3.289000000000000
-0.211678164059832 0.324092445311686 3.297000000000000
-0.211678164059832 0.333128144132688 3.297000000000000
-0.211742367324636 0.342267623312487 3.298000000000000
-0.211292944471006 0.350560416129969 3.291000000000000
-0.211164537941397 0.359361148413477 3.289000000000000
-0.211549757530223 0.369046935207161 3.295000000000000
-0.211742367324636 0.378421380924453 3.298000000000000
-0.211806570589441 0.387577303596192 3.299000000000000
-0.211164537941397 0.395416245073804 3.289000000000000
-0.211292944471006 0.404675948104339 3.291000000000000
-0.211228741206202 0.413569498418684 3.290000000000000
-0.211613960795028 0.423356686745997 3.296000000000000
-0.211228741206202 0.431602527912827 3.290000000000000
-0.210907724882180 0.439949408856465 3.285000000000000
-0.210779318352572 0.448678886008233 3.283000000000000
-0.210329895498941 0.456700361208706 3.276000000000000
-0.210073082439724 0.465109913781291 3.272000000000000
-0.210073082439724 0.474077098052542 3.272000000000000
-0.210394098763746 0.483782430676979 3.277000000000000
-0.210329895498941 0.492612947605553 3.276000000000000
-0.210329895498941 0.501591094204765 3.276000000000000
-0.210586708558159 0.511192646470404 3.280000000000000
-0.210843521617376 0.520816123391963 3.284000000000000
-0.210715115087767 0.529493529485922 3.282000000000000
-0.211164537941397 0.539636631715111 3.289000000000000
-0.211357147735810 0.549150847113893 3.292000000000000
-0.211742367324636 0.559190168984285 3.298000000000000
-0.210329895498941 0.564438120399248 3.276000000000000
-0.212191790178267 0.623780413608634 3.305000000000000
-0.213411652209549 0.636476137752613 3.324000000000000
-0.213540058739157 0.645974271416278 3.326000000000000
-0.213219042415136 0.654104646382706 3.321000000000000
-0.212641213031897 0.661408812615447 3.312000000000000
-0.212577009767092 0.670283178855862 3.311000000000000
-0.210907724882180 0.674022516621630 3.285000000000000
-0.215594563212895 0.716609417735950 3.358000000000000
-0.220474011338023 0.751650411361357 3.434000000000000
-0.216878628508982 0.748650548390456 3.378000000000000
-0.223427361519022 0.790330788246192 3.480000000000000
-0.211999180383854 0.777054027833351 3.302000000000000
-0.213668465268766 0.819655190936347 3.328000000000000
-0.210265692234137 0.815577193972912 3.275000000000000
-0.213411652209549 0.991754224607137 3.324000000000000
-0.216108189331330 1.013510214149077 3.366000000000000
-0.216621815449764 1.043659203148381 3.374000000000000
-0.215658766477700 1.048224957932066 3.359000000000000
-0.215722969742504 1.057745378008474 3.360000000000000
-0.214053684857592 1.058697543890421 3.334000000000000
-0.213090635885527 1.063030349204957 3.319000000000000
-0.212512806502288 1.069219098567772 3.310000000000000
-0.212705416296701 1.079267727454602 3.313000000000000
-0.213219042415136 1.090975340243254 3.321000000000000
-0.213090635885527 1.099414315704083 3.319000000000000
-0.212769619561505 1.106840361099083 3.314000000000000
-0.212255993443071 1.113228811190344 3.306000000000000
-0.212384399972679 1.122968116069129 3.308000000000000
-0.212512806502288 1.132718383275873 3.310000000000000
-0.212448603237484 1.141444758088828 3.309000000000000
-0.211999180383854 1.148079498802366 3.302000000000000
-0.211742367324636 1.155727169581732 3.298000000000000
-0.211742367324636 1.164765608984724 3.298000000000000
-0.211678164059832 1.173448134485839 3.297000000000000
-0.211100334676593 1.179255942952045 3.288000000000000
-0.210715115087767 1.186098606140000 3.282000000000000
-0.210843521617376 1.195821467526844 3.284000000000000
-0.211164537941397 1.206655919931157 3.289000000000000
-0.211485554265419 1.217517778155369 3.294000000000000
-0.211036131411789 1.223938753473687 3.287000000000000
-0.209944675910115 1.226570380886085 3.270000000000000
-0.204872617990574 1.258154020707838 3.191000000000000
-0.213347448944744 1.319306205225742 3.323000000000000
-0.211357147735810 1.316020499553285 3.292000000000000
-0.211870773854245 1.328262525829985 3.300000000000000
-0.211742367324636 1.336495957641565 3.298000000000000
-0.212063383648658 1.347574321842986 3.303000000000000
-0.212063383648658 1.356626464155928 3.303000000000000
-0.212577009767092 1.368986335458198 3.311000000000000
-0.212833822826310 1.379725229249683 3.315000000000000
-0.212512806502288 1.386715522108275 3.310000000000000
-0.212127586913462 1.393256721277330 3.304000000000000
-0.211678164059832 1.399340605010880 3.297000000000000
-0.208387405231883 -0.735181618368477 3.390000000000000
-0.209493887029574 -0.729745334159162 3.408000000000000
-0.209616829451540 -0.720828203877375 3.410000000000000
-0.209493887029574 -0.711065527315381 3.408000000000000
-0.208633290075815 -0.698842948208482 3.394000000000000
-0.208448876442866 -0.688931918462205 3.391000000000000
-0.208141520387952 -0.678636483723684 3.386000000000000
-0.207895635544020 -0.668566138465164 3.382000000000000
-0.207895635544020 -0.659297490175014 3.382000000000000
-0.207834164333037 -0.649836639388741 3.381000000000000
-0.208018577965986 -0.641139117422976 3.384000000000000
-0.207772693122055 -0.631118102640277 3.380000000000000
-0.207895635544020 -0.622222897014410 3.382000000000000
-0.207834164333037 -0.612773008556097 3.381000000000000
-0.207342394645175 -0.602079104158559 3.373000000000000
-0.206973567379277 -0.591780567081225 3.367000000000000
-0.206973567379277 -0.582553027520924 3.367000000000000
-0.206850624957312 -0.572984932280219 3.365000000000000
-0.206481797691415 -0.562757650334625 3.359000000000000
-0.206112970425517 -0.552563255372911 3.353000000000000
-0.205744143159620 -0.542401747395077 3.347000000000000
-0.205682671948637 -0.533069703962333 3.346000000000000
-0.205559729526672 -0.523586566763318 3.344000000000000
-0.205621200737655 -0.514575894937049 3.345000000000000
-0.205621200737655 -0.505408648180528 3.345000000000000
-0.205436787104706 -0.495796341871160 3.342000000000000
-0.205313844682740 -0.486346091656024 3.340000000000000
-0.205190902260775 -0.476906803768848 3.338000000000000
-0.205129431049792 -0.467618609647945 3.337000000000000
-0.204637661361929 -0.457374160696766 3.329000000000000
-0.204453247728980 -0.447846812429087 3.326000000000000
-0.203838535619152 -0.391973690412896 3.316000000000000
-0.204883546205860 -0.384848845940924 3.333000000000000
-0.204576190150946 -0.375150858076221 3.328000000000000
-0.204760603783895 -0.366360156322797 3.331000000000000
-0.204576190150946 -0.356909544350838 3.328000000000000
-0.204637661361929 -0.347893391360589 3.329000000000000
-0.204330305307015 -0.338261177463646 3.324000000000000
-0.204391776517997 -0.329250505637377 3.325000000000000
-0.204699132572912 -0.320619481153018 3.330000000000000
-0.204822074994877 -0.311680426215311 3.332000000000000
-0.204883546205860 -0.302639607987152 3.333000000000000
-0.204945017416843 -0.293593308595013 3.334000000000000
-0.204945017416843 -0.284456208240382 3.334000000000000
-0.204576190150946 -0.274823632586616 3.328000000000000
-0.204268834096032 -0.265303782551263 3.323000000000000
-0.204145891674066 -0.256042632493436 3.321000000000000
-0.204207362885049 -0.247015517175227 3.322000000000000
-0.204268834096032 -0.237982920693038 3.323000000000000
-0.203223823509323 -0.191463613292919 3.306000000000000
-0.198552011474626 0.113908563222486 3.230000000000000
-0.198244655419712 0.122570611094972 3.225000000000000
-0.201932928078683 0.133853806394326 3.285000000000000
-0.201256744757872 0.142378255126259 3.274000000000000
-0.195048152448603 0.146681878723766 3.173000000000000
-0.201502629601803 0.286290249557396 3.278000000000000
-0.201625572023769 0.295454032218282 3.280000000000000
-0.201748514445735 0.304628777207128 3.282000000000000
-0.201809985656717 0.313718925911106 3.283000000000000
-0.201994399289666 0.323011154168699 3.286000000000000
-0.202363226555563 0.332622945248653 3.292000000000000
-0.202486168977529 0.341852501877299 3.294000000000000
-0.202055870500649 0.350134332366821 3.287000000000000
-0.201687043234752 0.358487056231261 3.281000000000000
-0.201871456867700 0.367814912054724 3.284000000000000
-0.201932928078683 0.376929725996613 3.285000000000000
-0.201748514445735 0.385580088027493 3.282000000000000
-0.202055870500649 0.395175797372330 3.287000000000000
-0.202240284133597 0.404552983671612 3.290000000000000
-0.202732053821460 0.414575138536420 3.298000000000000
-0.202363226555563 0.422842904359170 3.292000000000000
-0.202178812922615 0.431471341734131 3.289000000000000
-0.201256744757872 0.438476214488909 3.274000000000000
-0.201502629601803 0.447995549294848 3.278000000000000
-0.201195273546889 0.456282137434706 3.273000000000000
-0.201256744757872 0.465394210794604 3.274000000000000
-0.201256744757872 0.474366876229836 3.274000000000000
-0.201441158390820 0.483782430676979 3.277000000000000
-0.201195273546889 0.492161836847673 3.273000000000000
-0.200519090226077 0.499447542520130 3.262000000000000
-0.200703503859026 0.508854875221302 3.265000000000000
-0.200887917491975 0.518278651414414 3.268000000000000
-0.201133802335906 0.527880203680054 3.272000000000000
-0.201748514445735 0.538488119577073 3.282000000000000
-0.202055870500649 0.548316778391059 3.287000000000000
-0.202363226555563 0.558172843024945 3.292000000000000
-0.201195273546889 0.563921235673608 3.273000000000000
-0.203654121986203 0.634369868945369 3.313000000000000
-0.204268834096032 0.645391612722878 3.323000000000000
-0.203900006830135 0.653316805796879 3.317000000000000
-0.203346765931289 0.660610009701660 3.308000000000000
-0.203285294720306 0.669473413614115 3.307000000000000
-0.204637661361929 0.683050519888403 3.329000000000000
-0.203100881087357 0.686975855472668 3.304000000000000
-0.209309473396626 0.782629478796117 3.405000000000000
-0.205190902260775 0.794673909111339 3.338000000000000
-0.207895635544020 0.832954884539281 3.382000000000000
-0.206666211324363 0.837242908744101 3.362000000000000
-0.209555358240557 0.858290019348509 3.409000000000000
-0.198552011474626 0.866335348574623 3.230000000000000
-0.199289666006420 0.878438898724533 3.242000000000000
-0.197691414520866 0.924276316438559 3.216000000000000
-0.203900006830135 0.989665692846533 3.317000000000000
-0.201133802335906 0.994173785785149 3.272000000000000
-0.203592650775220 1.015404307098655 3.312000000000000
-0.206112970425517 1.037163398979407 3.353000000000000
-0.205436787104706 1.042919859901449 3.342000000000000
-0.205375315893723 1.051764079739974 3.341000000000000
-0.204207362885049 1.054886994842225 3.322000000000000
-0.203654121986203 1.061108631188919 3.313000000000000
-0.203469708353255 1.069219098567772 3.310000000000000
-0.203715593197186 1.079593494954589 3.314000000000000
-0.203961478041117 1.089989815997325 3.318000000000000
-0.203777064408169 1.098089321048218 3.315000000000000
-0.203531179564237 1.105838393361214 3.311000000000000
-0.203223823509323 1.113228811190344 3.306000000000000
-0.203223823509323 1.122289175249256 3.306000000000000
-0.203223823509323 1.131349539308167 3.306000000000000
-0.203162352298340 1.140064951793163 3.305000000000000
-0.202732053821460 1.146688730178741 3.298000000000000
-0.202424697766546 1.153975005892251 3.293000000000000
-0.202547640188512 1.163706089025065 3.295000000000000
-0.202732053821460 1.173804048387716 3.298000000000000
-0.202486168977529 1.181407869855242 3.294000000000000
-0.201748514445735 1.186098606140000 3.282000000000000
-0.201625572023769 1.194364924935459 3.280000000000000
-0.201932928078683 1.205188415011812 3.285000000000000
-0.202240284133597 1.216039310908064 3.290000000000000
-0.201932928078683 1.223194038686055 3.285000000000000
-0.200642032648043 1.224319793031248 3.264000000000000
-0.201625572023769 1.293245123134349 3.280000000000000
-0.205067959838809 1.324467499438180 3.336000000000000
-0.201932928078683 1.313222157057273 3.285000000000000
-0.202732053821460 1.327457518238573 3.298000000000000
-0.203654121986203 1.342574623307006 3.313000000000000
-0.203715593197186 1.352062156399533 3.314000000000000
-0.203531179564237 1.359912268489336 3.311000000000000
-0.203592650775220 1.369399801581864 3.312000000000000
-0.203900006830135 1.380557642660995 3.317000000000000
-0.203654121986203 1.387972363971213 3.313000000000000
-0.203777064408169 1.397895287843326 3.315000000000000
-0.198655829519842 -0.733446676496221 3.382000000000000
-0.199948090977392 -0.728888825550994 3.404000000000000
-0.199771873505908 -0.718925724746907 3.401000000000000
-0.199595656034424 -0.708979067434760 3.398000000000000
-0.199125742777133 -0.698019326584193 3.390000000000000
-0.199067003619971 -0.688525588814041 3.389000000000000
-0.199067003619971 -0.679237756449960 3.389000000000000
-0.198538351205519 -0.668170771144960 3.380000000000000
-0.198244655419712 -0.657932888628229 3.375000000000000
-0.198009698791066 -0.647914614427520 3.371000000000000
-0.198362133734035 -0.639812884024051 3.377000000000000
-0.198127177105389 -0.629811053315282 3.373000000000000
-0.198185916262550 -0.620751051013193 3.374000000000000
-0.198303394576873 -0.611866807715286 3.376000000000000
-0.197892220476743 -0.601365105813871 3.369000000000000
-0.197657263848098 -0.591429049072861 3.365000000000000
-0.197304828905129 -0.581168880143387 3.359000000000000
-0.197069872276484 -0.571282153878198 3.355000000000000
-0.196834915647838 -0.561417352268928 3.351000000000000
-0.196717437333515 -0.551904068668022 3.349000000000000
-0.196247524076224 -0.541429410829684 3.341000000000000
-0.196130045761902 -0.531954495376638 3.339000000000000
-0.196012567447579 -0.522490542251553 3.337000000000000
-0.196071306604740 -0.513499054499214 3.338000000000000
-0.196188784919063 -0.504653179349167 3.340000000000000
-0.196247524076224 -0.495647988686878 3.341000000000000
-0.196306263233386 -0.486637316860609 3.342000000000000
-0.196188784919063 -0.477192547809453 3.340000000000000
-0.196071306604740 -0.467758741086257 3.338000000000000
-0.195718871661772 -0.457786333265732 3.332000000000000
-0.195483915033126 -0.448116112977752 3.328000000000000
-0.194720305990028 -0.437280630114611 3.315000000000000
-0.194602827675705 -0.391619070065719 3.313000000000000
-0.195366436718803 -0.384040582538108 3.326000000000000
-0.195307697561642 -0.374812681220984 3.325000000000000
-0.195366436718803 -0.365810231140685 3.326000000000000
-0.195366436718803 -0.356695055441974 3.326000000000000
-0.195366436718803 -0.347579879743262 3.326000000000000
-0.195131480090158 -0.338057650882741 3.322000000000000
-0.195190219247319 -0.329052460220452 3.323000000000000
-0.195248958404481 -0.320041788394183 3.324000000000000
-0.195307697561642 -0.311025635403934 3.325000000000000
-0.195307697561642 -0.301913200287213 3.325000000000000
-0.195601393347449 -0.293241067073004 3.330000000000000
-0.195601393347449 -0.284114929046332 3.330000000000000
-0.195190219247319 -0.274410736504004 3.323000000000000
-0.194837784304351 -0.264824750744068 3.317000000000000
-0.194720305990028 -0.255580044178182 3.315000000000000
-0.195072740932996 -0.246941159704675 3.321000000000000
-0.194367871047060 -0.236980284253164 3.309000000000000
-0.193075609589509 -0.226396419703688 3.287000000000000
-0.192605696332218 -0.216859040905927 3.279000000000000
-0.194015436104091 -0.200342013670023 3.303000000000000
-0.195601393347449 -0.192853548779619 3.330000000000000
-0.195366436718803 -0.147046014371612 3.326000000000000
-0.189257564374018 -0.001165580482671 3.222000000000000
-0.197011133119322 0.072321963572184 3.354000000000000
-0.192135783074927 0.106390017704160 3.271000000000000
-0.192194522232088 0.115389727202469 3.272000000000000
-0.191548391503313 0.123938841172311 3.261000000000000
-0.193545522846800 0.134261276124598 3.295000000000000
-0.191783348131958 0.141986867131104 3.265000000000000
-0.192312000546411 0.151350920561490 3.274000000000000
-0.189903695102794 0.158315868517838 3.233000000000000
-0.199771873505908 0.175863332657323 3.401000000000000
-0.192781913803702 0.277645006933672 3.282000000000000
-0.193839218632607 0.288211660628251 3.300000000000000
-0.193369305375316 0.296534961604446 3.292000000000000
-0.193075609589509 0.305092867361313 3.287000000000000
-0.192546957175056 0.313241132846971 3.278000000000000
-0.192429478860734 0.322028162220529 3.276000000000000
-0.192840652960863 0.331713587257390 3.283000000000000
-0.193428044532477 0.341748721518502 3.293000000000000
-0.192840652960863 0.349708248603673 3.283000000000000
-0.192781913803702 0.358596317754038 3.282000000000000
-0.192781913803702 0.367590907845190 3.282000000000000
-0.192899392118025 0.376814983309856 3.284000000000000
-0.192723174646541 0.385462604758747 3.281000000000000
-0.193369305375316 0.395776916626015 3.292000000000000
-0.193134348746670 0.404307054806159 3.288000000000000
-0.193486783689639 0.414072318477552 3.294000000000000
-0.193075609589509 0.422200676375635 3.287000000000000
-0.192781913803702 0.430553038483252 3.282000000000000
-0.192194522232088 0.438208360967535 3.272000000000000
-0.191900826446281 0.446492208525402 3.267000000000000
-0.191783348131958 0.455166874037370 3.265000000000000
-0.191959565603442 0.464541319754663 3.268000000000000
-0.192077043917765 0.473787319875249 3.270000000000000
-0.192370739703572 0.483487171335705 3.275000000000000
-0.192135783074927 0.491861096342419 3.271000000000000
-0.191430913188990 0.498988210016279 3.259000000000000
-0.191195956560344 0.507296361055234 3.255000000000000
-0.191313434874667 0.516534139429849 3.257000000000000
-0.191783348131958 0.526750875615946 3.265000000000000
-0.192253261389249 0.537011461113882 3.273000000000000
-0.192488218017895 0.546648640945391 3.277000000000000
-0.192488218017895 0.555629528126593 3.277000000000000
-0.191607130660474 0.562025991679593 3.262000000000000
-0.193956696946930 0.632263600138125 3.302000000000000
-0.194544088518544 0.643255197513744 3.312000000000000
-0.194602827675705 0.652528965211052 3.313000000000000
-0.194074175261253 0.659811206787873 3.304000000000000
-0.194720305990028 0.671092944097608 3.315000000000000
-0.195601393347449 0.683255701780830 3.330000000000000
-0.197716003005259 0.699867048886501 3.366000000000000
-0.194015436104091 0.695820075311193 3.303000000000000
-0.197833481319582 0.829506815827409 3.368000000000000
-0.200946656649136 0.851935749795827 3.421000000000000
-0.196541219862031 0.851598384152859 3.346000000000000
-0.195836349976095 0.857681336088532 3.334000000000000
-0.195190219247319 0.863958507588671 3.323000000000000
-0.191019739088860 0.881148457326398 3.252000000000000
-0.200711700020490 1.000772723535570 3.417000000000000
-0.198362133734035 1.007567393651716 3.377000000000000
-0.195131480090158 1.000261714617716 3.322000000000000
-0.194544088518544 1.006327499547804 3.312000000000000
-0.193780479475446 1.011418722559923 3.299000000000000
-0.197363568062291 1.048537022522103 3.360000000000000
-0.194955262618674 1.044838365955394 3.319000000000000
-0.194309131889898 1.050441354285996 3.308000000000000
-0.194309131889898 1.059507199508888 3.308000000000000
-0.194309131889898 1.068573044731779 3.308000000000000
-0.194720305990028 1.079919262454575 3.315000000000000
-0.194720305990028 1.089004291751396 3.315000000000000
-0.194661566832867 1.097758072384252 3.314000000000000
-0.194485349361382 1.105838393361214 3.311000000000000
-0.194426610204221 1.114575730502129 3.310000000000000
-0.194367871047060 1.123307586479065 3.309000000000000
-0.194309131889898 1.132033961292020 3.308000000000000
-0.194015436104091 1.139375048645330 3.303000000000000
-0.193604262003962 1.145993345866928 3.296000000000000
-0.193310566218155 1.153274140416459 3.291000000000000
-0.193428044532477 1.162999742385293 3.293000000000000
-0.193486783689639 1.172380392780211 3.294000000000000
-0.193428044532477 1.181049215371376 3.293000000000000
-0.192840652960863 1.186460001205856 3.283000000000000
-0.192546957175056 1.193636653639767 3.278000000000000
-0.192605696332218 1.202987157632795 3.279000000000000
-0.193016870432348 1.214560843660760 3.286000000000000
-0.192605696332218 1.220959894323158 3.279000000000000
-0.192840652960863 1.303425299956699 3.283000000000000
-0.192488218017895 1.310024051347544 3.277000000000000
-0.193663001161123 1.327055014442867 3.297000000000000
-0.194544088518544 1.342169378929309 3.312000000000000
-0.194720305990028 1.352470141359219 3.315000000000000
-0.194544088518544 1.360322994031012 3.312000000000000
-0.194485349361382 1.368986335458198 3.311000000000000
-0.194661566832867 1.379309022544027 3.314000000000000
-0.194779045147189 1.389229205834151 3.316000000000000
-0.194896523461512 1.399160351452234 3.318000000000000
-0.190424151355782 -0.737350295708797 3.400000000000000
-0.190592172665802 -0.728674698398952 3.403000000000000
-0.189976094529062 -0.717023245616439 3.392000000000000
-0.189864080322382 -0.707309899530264 3.390000000000000
-0.189528037702343 -0.696783894147761 3.384000000000000
-0.189696059012363 -0.688119259165876 3.387000000000000
-0.189640051909023 -0.678636483723684 3.386000000000000
-0.189191995082303 -0.667775403824756 3.378000000000000
-0.188911959565603 -0.657543002472005 3.373000000000000
-0.188855952462264 -0.648106816923642 3.372000000000000
-0.188799945358924 -0.638676112539259 3.371000000000000
-0.188687931152244 -0.629064167986714 3.369000000000000
-0.188911959565603 -0.620567070263041 3.373000000000000
-0.188855952462264 -0.611141847042638 3.372000000000000
-0.188407895635544 -0.600472607883010 3.364000000000000
-0.187959838808825 -0.589847218035222 3.356000000000000
-0.187623796188785 -0.579611714343658 3.350000000000000
-0.187791817498805 -0.570941598197793 3.353000000000000
-0.187735810395465 -0.561584889527140 3.352000000000000
-0.187735810395465 -0.552398458696689 3.352000000000000
-0.187287753568745 -0.541915579112380 3.344000000000000
-0.187231746465405 -0.532591757425607 3.343000000000000
-0.186839696742026 -0.522333967321300 3.336000000000000
-0.186671675432006 -0.512729882757902 3.333000000000000
-0.186559661225326 -0.503293335452717 3.331000000000000
-0.186783689638686 -0.494757869581184 3.335000000000000
-0.186895703845366 -0.485909253849147 3.337000000000000
-0.186951710948706 -0.476906803768848 3.338000000000000
-0.186951710948706 -0.467758741086257 3.338000000000000
-0.186727682535346 -0.458061114978377 3.334000000000000
-0.186223618605287 -0.447712162154755 3.325000000000000
-0.184151355781709 -0.397674934089003 3.288000000000000
-0.185607540468547 -0.391737276848111 3.314000000000000
-0.186167611501947 -0.383809650137303 3.324000000000000
-0.186167611501947 -0.374699955602572 3.324000000000000
-0.186167611501947 -0.365590261067840 3.324000000000000
-0.186055597295267 -0.356266077624244 3.322000000000000
-0.185999590191927 -0.347057360381051 3.321000000000000
-0.186111604398607 -0.338159414173194 3.323000000000000
-0.186391639915306 -0.329547573762764 3.328000000000000
-0.186503654121986 -0.320619481153018 3.330000000000000
-0.186447647018646 -0.311399801581864 3.329000000000000
-0.186447647018646 -0.302276404137183 3.329000000000000
-0.186447647018646 -0.293153006692501 3.329000000000000
-0.186447647018646 -0.284029609247820 3.329000000000000
-0.186055597295267 -0.274328157287482 3.322000000000000
-0.185775561778567 -0.264824750744068 3.317000000000000
-0.185607540468547 -0.255502946125639 3.314000000000000
-0.185383512055188 -0.246123227528598 3.310000000000000
-0.185439519158527 -0.237123518030289 3.311000000000000
-0.185775561778567 -0.228462708900862 3.317000000000000
-0.189920087425722 -0.205679615003042 3.391000000000000
-0.187735810395465 -0.175754794648192 3.352000000000000
-0.178326617034356 -0.001151833723410 3.184000000000000
-0.180846936684653 0.007681226465252 3.229000000000000
-0.184599412608428 0.098170190141578 3.296000000000000
-0.181351000614712 0.105316685211271 3.238000000000000
-0.185383512055188 0.125801154333134 3.310000000000000
-0.183087220818250 0.133201854825891 3.269000000000000
-0.183703298954989 0.142639180456362 3.280000000000000
-0.181070965098012 0.149455566944196 3.233000000000000
-0.179278737791135 0.156748869509929 3.201000000000000
-0.179782801721194 0.165986856168776 3.210000000000000
-0.183143227921590 0.276629851515268 3.270000000000000
-0.184487398401749 0.287687639427109 3.294000000000000
-0.184319377091729 0.296444884155599 3.291000000000000
-0.184039341575029 0.305000049330476 3.286000000000000
-0.183535277644970 0.313145574234144 3.277000000000000
-0.183311249231610 0.321733264636078 3.273000000000000
-0.183703298954989 0.331410467926969 3.280000000000000
-0.183871320265009 0.340710917930532 3.283000000000000
-0.183647291851649 0.349282164840525 3.279000000000000
-0.183591284748310 0.358159271662930 3.278000000000000
-0.183591284748310 0.367142899426122 3.278000000000000
-0.183983334471689 0.376929725996613 3.285000000000000
-0.184151355781709 0.386284987639975 3.288000000000000
-0.184487398401749 0.396017364327488 3.294000000000000
-0.184151355781709 0.404307054806159 3.288000000000000
-0.184095348678369 0.413192383374533 3.287000000000000
-0.183591284748310 0.421044666005273 3.278000000000000
-0.183703298954989 0.430290666125858 3.280000000000000
-0.183087220818250 0.437806580685474 3.269000000000000
-0.183255242128270 0.447175545238787 3.272000000000000
-0.183143227921590 0.455863913660705 3.270000000000000
-0.183087220818250 0.464683468261320 3.269000000000000
-0.182751178198210 0.472773096254721 3.263000000000000
-0.182919199508230 0.482158504299973 3.266000000000000
-0.183087220818250 0.491560355837166 3.269000000000000
-0.182639163991531 0.499294431685513 3.261000000000000
-0.182471142681511 0.507763915305054 3.258000000000000
-0.182135100061471 0.515741179436865 3.252000000000000
-0.182751178198210 0.526428210454772 3.263000000000000
-0.183423263438290 0.537339607439036 3.275000000000000
-0.183591284748310 0.546815454689958 3.278000000000000
-0.183367256334950 0.555120865146922 3.274000000000000
-0.182415135578171 0.561164517136859 3.257000000000000
-0.184095348678369 0.629391415400974 3.287000000000000
-0.184823441021788 0.640924562740143 3.300000000000000
-0.184991462331808 0.650559363746485 3.303000000000000
-0.184935455228468 0.659411805330980 3.302000000000000
-0.185439519158527 0.670283178855862 3.311000000000000
-0.185943583088587 0.681203882856563 3.320000000000000
-0.185999590191927 0.690510537537751 3.321000000000000
-0.187455774878765 0.705089249793086 3.347000000000000
-0.188575916945564 0.866170683446337 3.367000000000000
-0.186335632811966 0.883234314278980 3.327000000000000
-0.183087220818250 0.876795744424286 3.269000000000000
-0.184823441021788 0.957461782584149 3.300000000000000
-0.185607540468547 0.997852896521105 3.314000000000000
-0.186783689638686 1.022455725897952 3.335000000000000
-0.187903831705485 1.037782046995500 3.355000000000000
-0.185999590191927 1.036366503510686 3.321000000000000
-0.185663547571887 1.043579145267289 3.315000000000000
-0.185271497848508 1.050441354285996 3.308000000000000
-0.185495526261867 1.060788344852913 3.312000000000000
-0.185495526261867 1.069865152403765 3.312000000000000
-0.185663547571887 1.079919262454575 3.315000000000000
-0.185551533365207 1.088347275587444 3.313000000000000
-0.185607540468547 1.097758072384252 3.314000000000000
-0.185327504951848 1.105170414869302 3.309000000000000
-0.185103476538488 1.112892081362398 3.305000000000000
-0.184879448125128 1.120591823199575 3.301000000000000
-0.184935455228468 1.129980695340462 3.302000000000000
-0.184991462331808 1.139375048645330 3.303000000000000
-0.184655419711768 1.146341038022835 3.297000000000000
-0.184319377091729 1.153274140416459 3.291000000000000
-0.184263369988389 1.161940222425634 3.290000000000000
-0.184263369988389 1.170956737172706 3.290000000000000
-0.184263369988389 1.179973251919778 3.290000000000000
-0.183871320265009 1.186460001205856 3.283000000000000
-0.183703298954989 1.194364924935459 3.280000000000000
-0.183815313161669 1.204087786322303 3.282000000000000
-0.184039341575029 1.214560843660760 3.286000000000000
-0.183815313161669 1.222076966504607 3.282000000000000
-0.183311249231610 1.299455073639438 3.273000000000000
-0.183591284748310 1.310423814561260 3.278000000000000
-0.184599412608428 1.326652510647161 3.296000000000000
-0.185215490745168 1.340143157040829 3.307000000000000
-0.185439519158527 1.350838201520475 3.311000000000000
-0.185607540468547 1.361144445114364 3.314000000000000
-0.185607540468547 1.370226733829196 3.314000000000000
-0.185607540468547 1.379309022544027 3.314000000000000
-0.185887575985247 1.390486047697089 3.319000000000000
-0.180975343214261 -0.736699692506701 3.397000000000000
-0.181401543610409 -0.729102952703036 3.405000000000000
-0.180868793115224 -0.717657405326595 3.395000000000000
-0.181081893313298 -0.709187713422823 3.399000000000000
-0.180602417867632 -0.698019326584193 3.390000000000000
-0.180442592719077 -0.688119259165876 3.387000000000000
-0.179963117273410 -0.677033089786947 3.378000000000000
-0.179643466976299 -0.666589301864144 3.372000000000000
-0.179483641827744 -0.656763230159557 3.369000000000000
-0.179377091728707 -0.647145804443032 3.367000000000000
-0.179483641827744 -0.638297188710995 3.369000000000000
-0.179430366778226 -0.628877446654572 3.368000000000000
-0.179643466976299 -0.620383089512889 3.372000000000000
-0.179590191926781 -0.610960606874476 3.371000000000000
-0.179004166382078 -0.599758609538322 3.360000000000000
-0.178791066184004 -0.589847218035222 3.356000000000000
-0.178524690936411 -0.579784732765850 3.351000000000000
-0.178737791134485 -0.571282153878198 3.355000000000000
-0.178577965985930 -0.561584889527140 3.352000000000000
-0.178471415886893 -0.552068865344244 3.350000000000000
-0.178205040639301 -0.542077635206612 3.345000000000000
-0.178364865787856 -0.533388334986818 3.348000000000000
-0.178098490540264 -0.523429991833066 3.343000000000000
-0.177619015094597 -0.512883717106165 3.334000000000000
-0.177352639847005 -0.502991147920172 3.329000000000000
-0.177565740045079 -0.494461163212620 3.333000000000000
-0.177619015094597 -0.485472416042271 3.334000000000000
-0.177725565193634 -0.476621059728244 3.336000000000000
-0.177512464995560 -0.466917952456384 3.332000000000000
