# This PCD file was generated using the MATLAB® pcwrite function
# from Computer Vision System Toolbox®.
# .PCD v.7 - Point Cloud Data file format
VERSION .7
FIELDS x y z
SIZE 8 8 8
TYPE F F F
COUNT 1 1 1
WIDTH 879
HEIGHT 1
VIEWPOINT 0 0 0 1 0 0 0
POINTS 879
DATA ascii
0.516714705279694 1.150669644765763 3.233000000000000
0.517993306468137 1.162399182210334 3.241000000000000
0.522628235776245 1.181761865349726 3.270000000000000
0.522308585479134 1.189995297161305 3.268000000000000
0.520870159142135 1.195649633036071 3.259000000000000
0.519751383102247 1.201993872058670 3.252000000000000
0.522308585479134 1.216863962991181 3.268000000000000
0.520071033399358 1.220568813273187 3.254000000000000
0.516714705279694 1.274713866796753 3.233000000000000
0.518153131616693 1.287147372055930 3.242000000000000
0.516874530428249 1.292834233157753 3.234000000000000
0.516395054982583 1.300489763926267 3.231000000000000
0.515755754388361 1.307723606825145 3.227000000000000
0.516554880131139 1.318607389705278 3.232000000000000
0.516075404685472 1.326232774071902 3.229000000000000
0.515595929239806 1.333841714946586 3.226000000000000
0.515116453794140 1.341434212329330 3.223000000000000
0.515116453794140 1.350267108083072 3.223000000000000
0.514796803497029 1.358256628097543 3.221000000000000
0.514157502902807 1.365386328880801 3.217000000000000
0.513837852605696 1.373348443075371 3.215000000000000
0.514157502902807 1.383019233404406 3.217000000000000
0.514636978348474 1.393133636258996 3.220000000000000
0.515116453794140 1.403264482605526 3.223000000000000
0.515755754388361 1.413849903805572 3.227000000000000
0.516395054982583 1.424457249661538 3.231000000000000
0.517034355576805 1.435086520173424 3.235000000000000
0.517194180725360 1.444398656018592 3.236000000000000
0.517513831022471 1.454165366717276 3.238000000000000
0.517833481319582 1.463943039743920 3.240000000000000
0.518632607062359 1.475095399659072 3.245000000000000
0.519112082508025 1.485360534523111 3.248000000000000
0.519271907656581 1.494722000844099 3.249000000000000
0.507178471415887 -0.685177945988610 3.120000000000000
0.506365685404003 -0.675542991509677 3.115000000000000
0.505227784987364 -0.665507188546560 3.108000000000000
0.505390342189741 -0.657200846291718 3.109000000000000
0.504577556177857 -0.647637146944525 3.104000000000000
0.504089884570726 -0.638512664229376 3.101000000000000
0.503602212963595 -0.629404625006166 3.098000000000000
0.503114541356465 -0.620313029274897 3.095000000000000
0.502951984154088 -0.611633244355771 3.094000000000000
0.503602212963595 -0.603933655991186 3.098000000000000
0.504577556177857 -0.596596547962925 3.104000000000000
0.505878013796872 -0.589605476779049 3.112000000000000
0.506040570999249 -0.581263506958338 3.113000000000000
0.507015914213510 -0.573835959724407 3.119000000000000
0.507666143023018 -0.566013045170272 3.123000000000000
0.508478929034902 -0.558346705546390 3.128000000000000
0.509454272249163 -0.550828719106789 3.134000000000000
0.511404958677686 -0.544315956216462 3.146000000000000
0.524246977665460 -0.345863365544307 3.225000000000000
0.524409534867837 -0.337129492499027 3.226000000000000
0.527010450105867 -0.329916587646553 3.242000000000000
0.533350180998566 -0.324893506465033 3.281000000000000
0.503764770165972 0.584900303108368 3.099000000000000
0.503277098558842 0.592818929747921 3.096000000000000
0.501814083737450 0.599555795508734 3.087000000000000
0.500188511713681 0.606046370647271 3.077000000000000
0.499213168499419 0.613280937059794 3.071000000000000
0.498400382487535 0.620685057798874 3.066000000000000
0.498075268082781 0.628677318395334 3.064000000000000
0.497099924868520 0.635826926766168 3.058000000000000
0.496612253261389 0.643575637322342 3.055000000000000
0.495962024451882 0.651094500748179 3.051000000000000
0.496612253261389 0.660320593281189 3.055000000000000
0.497425039273274 0.669787495272496 3.060000000000000
0.497587596475651 0.678395301546236 3.061000000000000
0.497750153678028 0.687008588983957 3.062000000000000
0.497750153678028 0.695400251037310 3.062000000000000
0.498400382487535 0.704711301612010 3.066000000000000
0.499213168499419 0.714276864554957 3.071000000000000
0.499538282904173 0.723163848434854 3.073000000000000
0.499700840106550 0.731823725766404 3.074000000000000
0.500838740523188 0.741933941011713 3.081000000000000
0.507178471415887 0.759876125694052 3.120000000000000
0.527498121712998 0.808106257844916 3.245000000000000
0.529773922546274 0.820524251410029 3.259000000000000
0.529773922546274 0.829455808115411 3.259000000000000
0.529286250939144 0.837615605970084 3.256000000000000
0.528636022129636 0.845498966800590 3.252000000000000
0.529773922546274 0.856250478231557 3.259000000000000
0.531074380165289 0.867305832506591 3.267000000000000
0.532699952189058 0.878941466649858 3.277000000000000
0.531887166177174 0.886567574530127 3.272000000000000
0.529611365343897 0.891703008610908 3.258000000000000
0.527498121712998 0.932610897650225 3.245000000000000
0.532049723379551 0.949628004363006 3.273000000000000
0.534488081415204 0.962991136957844 3.288000000000000
0.535463424629465 0.973775897129514 3.294000000000000
0.535138310224711 0.982206650844373 3.292000000000000
0.535138310224711 0.991228646755425 3.292000000000000
0.535138310224711 1.000250642666477 3.292000000000000
0.533675295403319 1.006513387743021 3.283000000000000
0.532212280581927 1.012726802343746 3.274000000000000
0.532699952189058 1.022635661549087 3.277000000000000
0.535788539034219 1.037597846998789 3.296000000000000
0.528473464927259 1.165985727048996 3.251000000000000
0.533350180998566 1.185737211074144 3.281000000000000
0.533187623796189 1.194364924935459 3.280000000000000
0.530586708558159 1.197484014185252 3.264000000000000
0.530749265760536 1.206798890612410 3.265000000000000
0.531724608974797 1.217981035172629 3.271000000000000
0.528148350522505 1.218693323394156 3.249000000000000
0.525709992486852 1.266245106690857 3.234000000000000
0.527985793320128 1.280628097542794 3.248000000000000
0.528473464927259 1.290720575741464 3.251000000000000
0.527173007308244 1.296432102081198 3.243000000000000
0.526035106891606 1.302502282904798 3.236000000000000
0.525384878082098 1.309749828713626 3.232000000000000
0.525709992486852 1.319423359624650 3.234000000000000
0.525384878082098 1.327464950696930 3.232000000000000
0.524246977665460 1.333428248822920 3.225000000000000
0.523434191653576 1.340185592212362 3.220000000000000
0.523109077248822 1.348172371644842 3.218000000000000
0.523109077248822 1.356991564488635 3.218000000000000
0.522946520046445 1.365386328880801 3.217000000000000
0.523109077248822 1.374629950176219 3.218000000000000
0.523434191653576 1.384308962251224 3.220000000000000
0.523434191653576 1.393133636258996 3.220000000000000
0.523596748855953 1.402393701046354 3.221000000000000
0.524409534867837 1.413411772443996 3.226000000000000
0.525384878082098 1.424898121605104 3.232000000000000
0.525709992486852 1.434642907647868 3.234000000000000
0.525709992486852 1.443505949803500 3.234000000000000
0.526035106891606 1.453267179338204 3.236000000000000
0.526847892903490 1.464394874015446 3.241000000000000
0.527823236117752 1.476004549366103 3.247000000000000
0.528473464927259 1.486732480829629 3.251000000000000
0.528310907724882 1.495182056861595 3.250000000000000
0.516033057851240 -0.685617162620654 3.122000000000000
0.515867768595041 -0.676844197913869 3.121000000000000
0.514876033057851 -0.667006078610854 3.115000000000000
0.514049586776860 -0.657412232861771 3.110000000000000
0.512727272727273 -0.647219854968401 3.102000000000000
0.511570247933884 -0.637277231792944 3.095000000000000
0.511239669421488 -0.628388800885756 3.093000000000000
0.511404958677686 -0.620112605032805 3.094000000000000
0.511735537190083 -0.612028611675976 3.096000000000000
0.512892561983471 -0.604908371381747 3.103000000000000
0.513884297520661 -0.597557560443536 3.109000000000000
0.515206611570248 -0.590552786349709 3.117000000000000
0.515041322314050 -0.581823670954764 3.116000000000000
0.515867768595041 -0.574203921224711 3.121000000000000
0.516694214876033 -0.566556765674759 3.126000000000000
0.517685950413223 -0.559060703891078 3.132000000000000
0.518842975206612 -0.551707514127700 3.139000000000000
0.514710743801653 -0.538779366706314 3.114000000000000
0.540826446280992 -0.350903854902627 3.272000000000000
0.536363636363636 -0.339115066075432 3.245000000000000
0.534049586776860 -0.328797191451577 3.231000000000000
0.538512396694215 -0.322615984170398 3.258000000000000
0.488099173553719 0.185069320280855 2.953000000000000
0.511900826446281 0.576035243884391 3.097000000000000
0.513884297520661 0.586787687113235 3.109000000000000
0.512561983471074 0.593776324660305 3.101000000000000
0.510743801652893 0.600138454202134 3.090000000000000
0.508595041322314 0.606046370647271 3.077000000000000
0.507438016528926 0.613081236331347 3.070000000000000
0.506611570247934 0.620482616488437 3.065000000000000
0.506280991735537 0.628472136502908 3.063000000000000
0.505950413223140 0.636450694189418 3.061000000000000
0.505454545454545 0.644207626491562 3.058000000000000
0.505123966942149 0.652161518940162 3.056000000000000
0.504793388429752 0.660104449060803 3.054000000000000
0.505785123966942 0.669787495272496 3.060000000000000
0.505619834710744 0.677952050777503 3.059000000000000
0.506611570247934 0.687681686883026 3.065000000000000
0.506776859504132 0.696308677230697 3.066000000000000
0.507768595041322 0.706090384394030 3.072000000000000
0.508264462809917 0.715207215404263 3.075000000000000
0.509090909090909 0.724811146495070 3.080000000000000
0.509752066115702 0.734204414529470 3.084000000000000
0.511900826446281 0.745786892344458 3.097000000000000
0.519504132231405 0.765477776620643 3.143000000000000
0.537685950413223 0.810098507479048 3.253000000000000
0.538842975206612 0.820776023196286 3.260000000000000
0.538677685950413 0.829455808115411 3.259000000000000
0.538842975206612 0.838644617771030 3.260000000000000
0.538842975206612 0.847578915058402 3.260000000000000
0.539669421487603 0.857826882916856 3.265000000000000
0.540661157024793 0.868367731291417 3.271000000000000
0.541157024793388 0.878136820815268 3.274000000000000
0.540330578512397 0.885754706949568 3.269000000000000
0.538677685950413 0.891976705053085 3.259000000000000
0.544462809917355 0.991830851279578 3.294000000000000
0.544793388429752 1.001466014042742 3.296000000000000
0.543305785123967 1.007739721447246 3.287000000000000
0.542644628099174 1.015510718416163 3.283000000000000
0.543801652892562 1.198006281413921 3.290000000000000
0.535867768595041 1.189412737128857 3.242000000000000
0.538512396694215 1.204211572929627 3.258000000000000
0.539834710743802 1.216119248203548 3.266000000000000
0.539008264462810 1.223194499103830 3.261000000000000
0.536859504132231 1.271726687239302 3.248000000000000
0.539173553719008 1.286148046239099 3.262000000000000
0.539504132231405 1.295881869953903 3.264000000000000
0.538016528925620 1.301229260645791 3.255000000000000
0.536033057851240 1.305319809474740 3.243000000000000
0.534710743801653 1.310965561846714 3.235000000000000
0.534380165289256 1.319015374664964 3.233000000000000
0.533884297520661 1.326643499613578 3.230000000000000
0.532727272727273 1.332601316575588 3.223000000000000
0.531900826446281 1.339353178801050 3.218000000000000
0.531570247933884 1.347334477069550 3.216000000000000
0.531900826446281 1.356991564488635 3.218000000000000
0.531404958677686 1.364537471977549 3.215000000000000
0.531570247933884 1.373775612108988 3.216000000000000
0.532066115702479 1.383879052635618 3.219000000000000
0.532066115702479 1.392700986061400 3.219000000000000
0.532396694214876 1.402393701046354 3.221000000000000
0.532727272727273 1.412097378359268 3.223000000000000
0.533719008264463 1.423575505774406 3.229000000000000
0.534545454545455 1.434642907647868 3.234000000000000
0.535206611570248 1.445291362233684 3.238000000000000
0.535206611570248 1.454165366717276 3.238000000000000
0.535867768595041 1.464846708286972 3.242000000000000
0.536033057851240 1.474186249952040 3.243000000000000
0.536528925619835 1.484445903652099 3.246000000000000
0.537190082644628 1.495182056861595 3.250000000000000
0.523386380711700 -0.684079904408500 3.115000000000000
0.523554402021720 -0.675759859243709 3.116000000000000
0.522714295471621 -0.666149570002686 3.111000000000000
0.522042210231542 -0.656778073151615 3.107000000000000
0.520866061061403 -0.646802562992277 3.100000000000000
0.520698039751383 -0.638100853417232 3.099000000000000
0.520530018441363 -0.629404625006166 3.098000000000000
0.520866061061403 -0.621315150485357 3.100000000000000
0.520866061061403 -0.612819346316384 3.100000000000000
0.521706167611502 -0.605298257537971 3.105000000000000
0.522546274161601 -0.597749762939658 3.110000000000000
0.523386380711700 -0.590173862521445 3.115000000000000
0.523890444641759 -0.582197113619048 3.118000000000000
0.524394508571819 -0.574203921224711 3.121000000000000
0.525234615121918 -0.566556765674759 3.126000000000000
0.526074721672017 -0.558882204304906 3.131000000000000
0.553462195205246 -0.353263232900139 3.294000000000000
0.550269790314869 -0.342250182248702 3.275000000000000
0.544725087084216 -0.329916587646553 3.242000000000000
0.544389044464176 -0.320833575418076 3.240000000000000
0.550269790314869 -0.315323964197037 3.275000000000000
0.519185847961205 0.574733259154914 3.090000000000000
0.522378252851581 0.586787687113235 3.109000000000000
0.520698039751383 0.593393366695351 3.099000000000000
0.519521890581245 0.600526893331068 3.092000000000000
0.516833549620928 0.605849410500814 3.076000000000000
0.516161464380848 0.613480637788241 3.072000000000000
0.514481251280650 0.619875292557127 3.062000000000000
0.514481251280650 0.628266954610481 3.062000000000000
0.514145208660611 0.636242771715001 3.060000000000000
0.513977187350591 0.644418289547968 3.059000000000000
0.513809166040571 0.652588326216955 3.058000000000000
0.513977187350591 0.661185170162736 3.059000000000000
0.514481251280650 0.670225264877249 3.062000000000000
0.514481251280650 0.678616926930603 3.062000000000000
0.514817293900690 0.687457320916670 3.064000000000000
0.515657400450789 0.696989996875736 3.069000000000000
0.516329485690868 0.706320231524366 3.073000000000000
0.516665528310908 0.715207215404263 3.075000000000000
0.517337613550987 0.724575818200753 3.079000000000000
0.518177720101086 0.734204414529470 3.084000000000000
0.521706167611502 0.747713368010831 3.105000000000000
0.532459531452770 0.771810077668094 3.169000000000000
0.543884980534117 0.797242744309181 3.237000000000000
0.547077385424493 0.810845601091848 3.256000000000000
0.548253534594632 0.821531338555055 3.263000000000000
0.548421555904651 0.830728369956644 3.264000000000000
0.548589577214671 0.839930882522212 3.265000000000000
0.548757598524691 0.849138876251761 3.266000000000000
0.549597705074790 0.859403287602155 3.271000000000000
0.550773854244929 0.870226054164862 3.278000000000000
0.551445939485008 0.880282543040840 3.282000000000000
0.550941875554948 0.888464265551432 3.279000000000000
0.549429683764770 0.894987365917026 3.270000000000000
0.539684447783621 0.967140465789315 3.212000000000000
0.552622088655147 0.999339114134278 3.289000000000000
0.549765726384810 1.218353392566445 3.272000000000000
0.545061129704255 1.216817833515125 3.244000000000000
0.548589577214671 1.287330892388308 3.265000000000000
0.549093641144731 1.297469960480808 3.268000000000000
0.548589577214671 1.305226892782951 3.265000000000000
0.547077385424493 1.310552358818919 3.256000000000000
0.545565193634315 1.315828494379066 3.247000000000000
0.543716959224097 1.320239329544022 3.236000000000000
0.543212895294037 1.327875676238606 3.233000000000000
0.541868724813879 1.333428248822920 3.225000000000000
0.541364660883819 1.341018005623674 3.222000000000000
0.540860596953760 1.348591318932488 3.219000000000000
0.541364660883819 1.358678315967179 3.222000000000000
0.541364660883819 1.367508471138931 3.222000000000000
0.541364660883819 1.376338626310683 3.222000000000000
0.541532682193839 1.385598691098041 3.223000000000000
0.541028618263780 1.393133636258996 3.220000000000000
0.541196639573800 1.402393701046354 3.221000000000000
0.541196639573800 1.411221115636117 3.221000000000000
0.542372788743938 1.423134633830840 3.228000000000000
0.543044873984018 1.433755682596756 3.232000000000000
0.544389044464176 1.446184068448776 3.240000000000000
0.544725087084216 1.455961741475420 3.242000000000000
0.545229151014275 1.466202211101550 3.245000000000000
0.544893108394235 1.474186249952040 3.243000000000000
0.544893108394235 1.483073957345582 3.243000000000000
0.545061129704255 1.492421720756620 3.244000000000000
0.530530701454819 -0.682323037880324 3.107000000000000
0.532238235093231 -0.675976726977741 3.117000000000000
0.532067481729390 -0.667220205762896 3.116000000000000
0.530530701454819 -0.656778073151615 3.107000000000000
0.529676934635612 -0.647219854968401 3.102000000000000
0.529506181271771 -0.638512664229376 3.101000000000000
0.528823167816406 -0.629201460182084 3.097000000000000
0.529335427907930 -0.621315150485357 3.100000000000000
0.529164674544089 -0.612621662656282 3.099000000000000
0.529847687999454 -0.604908371381747 3.103000000000000
0.530530701454819 -0.597173155451292 3.107000000000000
0.531213714910184 -0.589416014864917 3.111000000000000
0.531896728365549 -0.581636949622622 3.115000000000000
0.532750495184755 -0.574019940474559 3.120000000000000
0.533775015367803 -0.566556765674759 3.126000000000000
0.533775015367803 -0.557989706374046 3.126000000000000
0.562973840584660 -0.344549267442434 3.297000000000000
0.558363499760945 -0.332765959779219 3.270000000000000
0.553240898845707 -0.320833575418076 3.240000000000000
0.556314459394850 -0.313687168047007 3.258000000000000
0.530872208182501 0.586787687113235 3.109000000000000
0.529164674544089 0.593393366695351 3.099000000000000
0.528310907724882 0.600915332460001 3.094000000000000
0.526432620722628 0.607228131526011 3.083000000000000
0.525408100539581 0.614479141430474 3.077000000000000
0.523017553445803 0.620077733867564 3.063000000000000
0.523017553445803 0.628472136502908 3.063000000000000
0.522676046718120 0.636450694189418 3.061000000000000
0.523017553445803 0.645260941773595 3.063000000000000
0.522676046718120 0.653228537132145 3.061000000000000
0.522846800081962 0.661833602823896 3.062000000000000
0.522846800081962 0.670225264877249 3.062000000000000
0.522846800081962 0.678616926930603 3.062000000000000
0.523529813537327 0.687906052849383 3.066000000000000
0.524042073628850 0.696989996875736 3.069000000000000
0.524554333720374 0.706090384394030 3.072000000000000
0.525066593811898 0.715207215404263 3.075000000000000
0.525749607267263 0.724575818200753 3.079000000000000
0.526432620722628 0.733966345653163 3.083000000000000
0.530701454818660 0.748435796385720 3.108000000000000
0.543337203742914 0.774976228191819 3.182000000000000
0.553923912301072 0.798966778665117 3.244000000000000
0.556655966122533 0.811841725908914 3.260000000000000
0.557680486305580 0.822286653913825 3.266000000000000
0.557680486305580 0.831237394693137 3.266000000000000
0.557851239669422 0.840445388422685 3.267000000000000
0.558363499760945 0.850178850380667 3.270000000000000
0.559558773307834 0.860979692287454 3.277000000000000
0.561095553582406 0.872349851734514 3.286000000000000
0.562290827129294 0.883232911101001 3.293000000000000
0.563486100676183 0.894154338615348 3.300000000000000
0.556826719486374 1.285753764189363 3.261000000000000
0.558534253124787 1.298661028375986 3.271000000000000
0.558875759852469 1.308424998492680 3.273000000000000
0.558192746397104 1.315784908163098 3.269000000000000
0.555972952667168 1.319475693778331 3.256000000000000
0.553753158937231 1.323095224261824 3.243000000000000
0.552045625298818 1.327875676238606 3.233000000000000
0.550679598388088 1.333428248822920 3.225000000000000
0.550508845024247 1.341850419034986 3.224000000000000
0.550850351751930 1.351523949946010 3.226000000000000
0.551021105115771 1.360786755315359 3.227000000000000
0.550508845024247 1.368357328042183 3.224000000000000
0.549996584932723 1.375911457277067 3.221000000000000
0.549825831568882 1.384308962251224 3.220000000000000
0.549484324841199 1.392268335863804 3.218000000000000
0.549825831568882 1.401958310266768 3.220000000000000
0.550167338296565 1.411659246997692 3.222000000000000
0.551362611843453 1.423575505774406 3.229000000000000
0.552216378662660 1.434642907647868 3.234000000000000
0.553240898845707 1.446184068448776 3.240000000000000
0.553753158937231 1.456410835164955 3.243000000000000
0.553753158937231 1.465298542558498 3.243000000000000
0.553411652209549 1.473277100245008 3.241000000000000
0.553240898845707 1.481702011039064 3.240000000000000
0.553582405573390 1.491501608721628 3.242000000000000
0.533814630148214 -0.675734788399665 3.077000000000000
0.540407076019398 -0.675542991509677 3.115000000000000
0.539366163513421 -0.665721315698602 3.109000000000000
0.538498736425108 -0.656143913441458 3.104000000000000
0.537804794754457 -0.646802562992277 3.100000000000000
0.537978280172119 -0.638512664229376 3.101000000000000
0.537804794754457 -0.629810954654330 3.100000000000000
0.537978280172119 -0.621515574727449 3.101000000000000
0.537804794754457 -0.612819346316384 3.100000000000000
0.538151765589782 -0.604713428303635 3.102000000000000
0.538672221842770 -0.596788750459047 3.105000000000000
0.539019192678096 -0.588658167208388 3.107000000000000
0.540060105184072 -0.581263506958338 3.113000000000000
0.541101017690048 -0.573835959724407 3.119000000000000
0.541968444778362 -0.566194285338435 3.124000000000000
0.536590396830818 -0.552099220030366 3.093000000000000
0.568338228263097 -0.324398392922721 3.276000000000000
0.564868519909842 -0.313494603794062 3.256000000000000
0.569379140769073 -0.307003348991192 3.282000000000000
0.539192678095759 0.586598948712749 3.108000000000000
0.537457823919131 0.593201887712875 3.098000000000000
0.536069940577829 0.600138454202134 3.090000000000000
0.534855542654190 0.607228131526011 3.083000000000000
0.534335086401202 0.615078243615814 3.080000000000000
0.532947203059900 0.621899705661494 3.072000000000000
0.532253261389249 0.629498045965041 3.068000000000000
0.531559319718598 0.637074461612668 3.064000000000000
0.531559319718598 0.645471604830002 3.064000000000000
0.531559319718598 0.653868748047335 3.064000000000000
0.531559319718598 0.662265891264669 3.064000000000000
0.531212348883273 0.670225264877249 3.062000000000000
0.531212348883273 0.678616926930603 3.062000000000000
0.531559319718598 0.687457320916670 3.064000000000000
0.532600232224575 0.697217103424083 3.070000000000000
0.533120688477563 0.706320231524366 3.073000000000000
0.533988115565877 0.715904978541243 3.078000000000000
0.534335086401202 0.724811146495070 3.080000000000000
0.535549484324841 0.734918621158389 3.087000000000000
0.541274503107711 0.751325509885279 3.120000000000000
0.556541219862031 0.781308529239269 3.208000000000000
0.563480636568541 0.799951941154223 3.248000000000000
0.565909432415819 0.812339788317447 3.262000000000000
0.567644286592446 0.823797284631364 3.272000000000000
0.567297315757121 0.832255444166123 3.270000000000000
0.568164742845434 0.842503412024577 3.275000000000000
0.568164742845434 0.851478818041799 3.275000000000000
0.571460965781026 0.865446172229135 3.294000000000000
0.565215490745168 1.284570918040155 3.258000000000000
0.567470801174783 1.298661028375986 3.271000000000000
0.567644286592446 1.308025235278964 3.272000000000000
0.567644286592446 1.316992419550216 3.272000000000000
0.566082917833481 1.322312404422203 3.263000000000000
0.564348063656854 1.327175073858685 3.253000000000000
0.562439724062564 1.331572206113690 3.242000000000000
0.560878355303600 1.336735977812248 3.233000000000000
0.560531384468274 1.344763865974578 3.231000000000000
0.560357899050611 1.353199739096594 3.230000000000000
0.559837442797623 1.360786755315359 3.227000000000000
0.559490471962298 1.368781756493809 3.225000000000000
0.558796530291647 1.375911457277067 3.221000000000000
0.558449559456321 1.383879052635618 3.219000000000000
0.557408646950345 1.390105084875824 3.213000000000000
0.557408646950345 1.398910574809666 3.213000000000000
0.558102588620996 1.409468590189813 3.217000000000000
0.559316986544635 1.421371146056576 3.224000000000000
0.560531384468274 1.433312070071200 3.231000000000000
0.560878355303600 1.443059596695954 3.233000000000000
0.561572296974250 1.453716273027740 3.237000000000000
0.561919267809576 1.463491205472394 3.239000000000000
0.562266238644901 1.473277100245008 3.241000000000000
0.562266238644901 1.482159326474570 3.241000000000000
0.562266238644901 1.491041552704132 3.241000000000000
0.549622293559183 -0.676410462445805 3.119000000000000
0.549446076087699 -0.667648460066980 3.118000000000000
0.547683901372857 -0.656989459721667 3.108000000000000
0.546450379072468 -0.647011208980339 3.101000000000000
0.546097944129499 -0.638100853417232 3.099000000000000
0.546097944129499 -0.629607789830248 3.099000000000000
0.546097944129499 -0.621114726243265 3.099000000000000
0.546274161600984 -0.612819346316384 3.100000000000000
0.546626596543952 -0.604713428303635 3.102000000000000
0.546626596543952 -0.596212142970681 3.102000000000000
0.547155248958405 -0.588279243380124 3.105000000000000
0.548388771258794 -0.581076785626196 3.112000000000000
0.550150945973636 -0.574387901974863 3.122000000000000
0.550679598388088 -0.566375525506597 3.125000000000000
0.577640871525169 -0.315612810576454 3.278000000000000
0.577288436582201 -0.306442099724297 3.276000000000000
0.542221159756847 0.572315287514456 3.077000000000000
0.546626596543952 0.585466518309828 3.102000000000000
0.545921726658015 0.593201887712875 3.098000000000000
0.544335769414657 0.599944234637668 3.089000000000000
0.543102247114268 0.607031171379554 3.082000000000000
0.542749812171300 0.615078243615814 3.080000000000000
0.542221159756847 0.622911912213678 3.077000000000000
0.541868724813879 0.630934319212028 3.075000000000000
0.541340072399426 0.638737841408001 3.072000000000000
0.540987637456458 0.646735583168442 3.070000000000000
0.540106550099037 0.654082151685732 3.065000000000000
0.539577897684585 0.661833602823896 3.062000000000000
0.539577897684585 0.670225264877249 3.062000000000000
0.540106550099037 0.679281803083703 3.065000000000000
0.540458985042005 0.688130418815740 3.067000000000000
0.541340072399426 0.697671316520776 3.072000000000000
0.542573594699816 0.707699314306386 3.079000000000000
0.543278464585752 0.717067917102876 3.083000000000000
0.543454682057237 0.725752459672336 3.084000000000000
0.545040639300594 0.736347034416229 3.093000000000000
0.552089338159962 0.754456032843134 3.133000000000000
0.565834300935729 0.782039179360129 3.211000000000000
0.573059217266580 0.800937103643330 3.252000000000000
0.576054914281811 0.814083006747313 3.269000000000000
0.577993306468138 0.825811458921417 3.280000000000000
0.578345741411106 0.835309592585081 3.282000000000000
0.580284133597432 0.847133965128835 3.293000000000000
0.574116522095485 1.284570918040155 3.258000000000000
0.576231131753296 1.298264005744260 3.270000000000000
0.576231131753296 1.307225708851532 3.270000000000000
0.576759784167748 1.317394923345922 3.273000000000000
0.575526261867359 1.323528137555291 3.266000000000000
0.574645174509938 1.330438953536173 3.261000000000000
0.572530564852128 1.334447284905423 3.249000000000000
0.571649477494707 1.341284105172574 3.244000000000000
0.570239737722833 1.346844899502858 3.236000000000000
0.569887302779865 1.354875528247179 3.234000000000000
0.568477563007991 1.360365067445723 3.226000000000000
0.567948910593539 1.367932899590557 3.223000000000000
0.566715388293149 1.373775612108988 3.216000000000000
0.566362953350181 1.381729504557588 3.214000000000000
0.566010518407213 1.389672434678228 3.212000000000000
0.566186735878697 1.398910574809666 3.213000000000000
0.567420258179086 1.410782984274540 3.220000000000000
0.568125128065023 1.421371146056576 3.224000000000000
0.569358650365412 1.433312070071200 3.231000000000000
0.569182432893928 1.441720537373316 3.230000000000000
0.569711085308381 1.451919898269596 3.233000000000000
0.570239737722833 1.462135702657816 3.236000000000000
0.570768390137286 1.472367950537976 3.239000000000000
0.571825694966191 1.483988588216594 3.245000000000000
0.572178129909159 1.493801888809107 3.247000000000000
0.558322518953624 -0.685177945988610 3.120000000000000
0.557785670377706 -0.675976726977741 3.117000000000000
0.557069872276484 -0.666577824306770 3.113000000000000
0.555638276074039 -0.656355300011510 3.105000000000000
0.555101427498122 -0.647219854968401 3.102000000000000
0.554922477972816 -0.638512664229376 3.101000000000000
0.555280377023427 -0.630420449126577 3.103000000000000
0.555280377023427 -0.621916423211633 3.103000000000000
0.555638276074039 -0.613807764616894 3.105000000000000
0.555638276074039 -0.605298257537971 3.105000000000000
0.555638276074039 -0.596788750459047 3.105000000000000
0.555817225599344 -0.588468705294256 3.106000000000000
0.557606720852401 -0.581823670954764 3.116000000000000
0.559396216105457 -0.575123824975472 3.126000000000000
0.558322518953624 -0.565469324665786 3.120000000000000
0.589996584932723 -0.308406472158428 3.297000000000000
0.553132982719760 0.583390395904474 3.091000000000000
0.554027730346288 0.592818929747921 3.096000000000000
0.553311932245065 0.600526893331068 3.092000000000000
0.551701386517314 0.607228131526011 3.083000000000000
0.551164537941398 0.615078243615814 3.080000000000000
0.550806638890786 0.623114353524114 3.078000000000000
0.550806638890786 0.631549864889308 3.078000000000000
0.550627689365481 0.639777453780085 3.077000000000000
0.550090840789564 0.647578235394068 3.074000000000000
0.549017143637730 0.654722362600922 3.068000000000000
0.548480295061813 0.662482035485055 3.065000000000000
0.549017143637730 0.671538573691509 3.068000000000000
0.549375042688341 0.680389930005536 3.070000000000000
0.549732941738952 0.689252248647523 3.072000000000000
0.550806638890786 0.699033955810856 3.078000000000000
0.552059285567926 0.709078397088406 3.085000000000000
0.552417184618537 0.717998267952182 3.087000000000000
0.552059285567926 0.725987787966653 3.085000000000000
0.554206679871593 0.737299309921455 3.097000000000000
0.562080458985042 0.756382508509507 3.141000000000000
0.575680622908271 0.783500479601848 3.217000000000000
0.584270200122943 0.804138881732925 3.265000000000000
0.587849190629056 0.818067506015577 3.285000000000000
0.590354483983334 0.830595122860290 3.299000000000000
0.582301755344580 1.282993789841211 3.254000000000000
0.584270200122943 1.296278892585629 3.265000000000000
0.584628099173554 1.306026419210383 3.267000000000000
0.585522846800082 1.316992419550216 3.272000000000000
0.585164947749471 1.325149115066075 3.270000000000000
0.584270200122943 1.332070893374917 3.265000000000000
0.582838603920497 1.337733089238831 3.257000000000000
0.581228058192746 1.342937969667239 3.248000000000000
0.579796461990301 1.348509726325482 3.240000000000000
0.578722764838467 1.354875528247179 3.234000000000000
0.577828017211939 1.361630131054631 3.229000000000000
0.577112219110717 1.368781756493809 3.225000000000000
0.576396421009494 1.375911457277067 3.221000000000000
0.575501673382966 1.382589323788800 3.216000000000000
0.575143774332354 1.390537735073420 3.214000000000000
0.575501673382966 1.400216747148424 3.216000000000000
0.576396421009494 1.411221115636117 3.221000000000000
0.576933269585411 1.421371146056576 3.224000000000000
0.577649067686633 1.431981232494533 3.228000000000000
0.578722764838467 1.443505949803500 3.234000000000000
0.579438562939690 1.454165366717276 3.238000000000000
0.580870159142135 1.466654045373075 3.246000000000000
0.580691209616830 1.475095399659072 3.245000000000000
0.581407007718052 1.485817849958617 3.249000000000000
0.581407007718052 1.494722000844099 3.249000000000000
0.568845024246978 -0.687593637464852 3.131000000000000
0.567573253193088 -0.677494801115965 3.124000000000000
0.565574755822690 -0.666577824306770 3.113000000000000
0.564666347927054 -0.656989459721667 3.108000000000000
0.564121303189673 -0.647845792932587 3.105000000000000
0.564484666347927 -0.639748096665808 3.107000000000000
0.565029711085308 -0.631842602895151 3.110000000000000
0.564848029506181 -0.623118968664185 3.109000000000000
0.564848029506181 -0.614598499257302 3.109000000000000
0.564121303189673 -0.605298257537971 3.105000000000000
0.563939621610546 -0.596596547962925 3.104000000000000
0.564121303189673 -0.588279243380124 3.105000000000000
0.566301482139198 -0.582010392286906 3.117000000000000
0.568663342667851 -0.575859747976080 3.130000000000000
0.557399084761970 0.579049412693279 3.068000000000000
0.562304487398402 0.592627450765444 3.095000000000000
0.562849532135783 0.601692210717868 3.098000000000000
0.561032716344512 0.608212932258294 3.088000000000000
0.559942626869749 0.615477645072708 3.082000000000000
0.558852537394987 0.622709470903241 3.076000000000000
0.559215900553241 0.631549864889308 3.078000000000000
0.559215900553241 0.639985376254501 3.078000000000000
0.558489174236733 0.647578235394068 3.074000000000000
0.557035721603716 0.654295555324129 3.066000000000000
0.556854040024588 0.662482035485055 3.065000000000000
0.557762447920224 0.671976343296262 3.070000000000000
0.558307492657605 0.681054806158636 3.073000000000000
0.558125811078478 0.689252248647523 3.072000000000000
0.558307492657605 0.697898423069123 3.073000000000000
0.559942626869749 0.708388855697396 3.082000000000000
0.560487671607131 0.717533092527529 3.085000000000000
0.560851034765385 0.726458444555286 3.087000000000000
0.562849532135783 0.737537378797761 3.098000000000000
0.571025203196503 0.756864127426100 3.143000000000000
0.586831500580561 0.786666630125573 3.230000000000000
0.596460624274298 0.808572112933903 3.283000000000000
0.590828495321358 1.282205225741739 3.252000000000000
0.592826992691756 1.295484847322177 3.263000000000000
0.594098763745646 1.307225708851532 3.270000000000000
0.595007171641281 1.318199930937334 3.275000000000000
0.594462126903900 1.325959603821467 3.272000000000000
0.594280445324773 1.334518803133033 3.271000000000000
0.592826992691756 1.340197442488887 3.263000000000000
0.592281947954375 1.347899563151231 3.260000000000000
0.590283450583977 1.352255586676387 3.249000000000000
0.589556724267468 1.359483948411285 3.245000000000000
0.588103271634451 1.365003634011719 3.237000000000000
0.587194863738816 1.371752755655191 3.232000000000000
0.586104774264053 1.378047302445147 3.226000000000000
0.585378047947545 1.385168781482436 3.222000000000000
0.586104774264053 1.395729537444572 3.226000000000000
0.586649819001434 1.405876827283042 3.229000000000000
0.587739908476197 1.417354954698179 3.235000000000000
0.587558226897070 1.425779865492236 3.234000000000000
0.587921590055324 1.435530132698980 3.236000000000000
0.589193361109214 1.447523127771414 3.243000000000000
0.590646813742231 1.460003584681243 3.251000000000000
0.591373540058739 1.470720553816808 3.255000000000000
0.590646813742231 1.477822848780167 3.251000000000000
0.591010176900485 1.487647111700641 3.253000000000000
0.590828495321358 1.496102168896587 3.252000000000000
0.582562666484530 -0.693742670313468 3.159000000000000
0.575370534799536 -0.676627330179837 3.120000000000000
0.573341984837101 -0.665721315698602 3.109000000000000
0.572788743938256 -0.656566686581562 3.106000000000000
0.572604330305307 -0.647845792932587 3.105000000000000
0.573157571204153 -0.639954002071880 3.108000000000000
0.573710812102998 -0.632045767719233 3.111000000000000
0.573710812102998 -0.623519817148370 3.111000000000000
0.573526398470050 -0.614796182917404 3.110000000000000
0.572604330305307 -0.605298257537971 3.105000000000000
0.572604330305307 -0.596788750459047 3.105000000000000
0.573526398470050 -0.589226552950785 3.110000000000000
0.575739362065433 -0.582943998947617 3.122000000000000
0.572235503039410 0.594159282625258 3.103000000000000
0.571682262140564 0.602080649846801 3.100000000000000
0.569838125811079 0.608606852551208 3.090000000000000
0.568916057646336 0.616076747258048 3.085000000000000
0.567993989481593 0.623519236144988 3.080000000000000
0.567809575848644 0.631755046781735 3.079000000000000
0.567440748582747 0.639777453780085 3.077000000000000
0.566703094050953 0.647367572337662 3.073000000000000
0.565965439519159 0.654935766239318 3.069000000000000
0.565781025886210 0.663130468146215 3.068000000000000
0.565781025886210 0.671538573691509 3.068000000000000
0.566149853152107 0.680389930005536 3.070000000000000
0.566149853152107 0.688803516714810 3.070000000000000
0.566518680418004 0.697671316520776 3.072000000000000
0.567625162215696 0.707469467176049 3.078000000000000
0.567993989481593 0.716370153965896 3.080000000000000
0.569100471279284 0.726223116260969 3.086000000000000
0.571497848507616 0.737775447674068 3.099000000000000
0.579243221091456 0.756382508509507 3.141000000000000
0.602479338842975 1.297072937849082 3.267000000000000
0.603216993374770 1.307625472065248 3.271000000000000
0.603954647906564 1.318199930937334 3.275000000000000
0.603401407007718 1.325959603821467 3.272000000000000
0.603216993374770 1.334518803133033 3.271000000000000
0.601926097944130 1.340608168030563 3.264000000000000
0.601926097944130 1.349553427645895 3.264000000000000
0.600450788880541 1.355169033615979 3.256000000000000
0.598791066184004 1.360321842986576 3.247000000000000
0.597500170753364 1.366268697620627 3.240000000000000
0.596762516221570 1.373450469461695 3.236000000000000
0.596762516221570 1.382318992781307 3.236000000000000
0.596209275322724 1.389897787254101 3.233000000000000
0.596393688955672 1.399190739025339 3.234000000000000
0.596393688955672 1.408053781180971 3.234000000000000
0.597131343487467 1.418669348782907 3.238000000000000
0.596946929854518 1.427102481322934 3.237000000000000
0.597500170753364 1.437304582801203 3.240000000000000
0.598791066184004 1.449308540201597 3.247000000000000
0.600081961614644 1.461350865749850 3.254000000000000
0.600450788880541 1.471172388088334 3.256000000000000
0.599528720715798 1.477822848780167 3.251000000000000
0.599344307082850 1.486275165394123 3.250000000000000
0.599713134348747 1.496102168896587 3.252000000000000
0.582771668601871 -0.675326123775645 3.114000000000000
0.581835940168021 -0.665721315698602 3.109000000000000
0.581461648794481 -0.656778073151615 3.107000000000000
0.581648794481251 -0.648471730896773 3.108000000000000
0.581835940168021 -0.640159907477952 3.109000000000000
0.582210231541561 -0.632045767719233 3.111000000000000
0.581835940168021 -0.623118968664185 3.109000000000000
0.581461648794481 -0.614203131937098 3.107000000000000
0.581274503107711 -0.605493200616083 3.106000000000000
0.581461648794481 -0.597173155451292 3.107000000000000
0.582397377228331 -0.589605476779049 3.112000000000000
0.583894542722492 -0.582570556283332 3.120000000000000
0.580713066047401 0.594159282625258 3.103000000000000
0.579403046240011 0.601303771588935 3.096000000000000
0.578093026432621 0.608409892404751 3.089000000000000
0.577718735059081 0.616476148714941 3.087000000000000
0.576970152312001 0.624126560076298 3.083000000000000
0.576408715251691 0.631960228674161 3.080000000000000
0.575472986817840 0.639361608831251 3.075000000000000
0.574537258383990 0.646735583168442 3.070000000000000
0.573788675636910 0.654295555324129 3.066000000000000
0.573975821323680 0.662914323925829 3.067000000000000
0.573975821323680 0.671319688889132 3.067000000000000
0.574350112697220 0.680168304621169 3.069000000000000
0.574350112697220 0.688579150748453 3.069000000000000
0.574537258383990 0.697217103424083 3.070000000000000
0.575285841131070 0.706550078654703 3.074000000000000
0.575847278191380 0.715672390828916 3.077000000000000
0.578467317806161 0.727399757732552 3.091000000000000
0.580713066047401 0.738727723179294 3.103000000000000
0.585765999590192 0.753733604468245 3.130000000000000
0.613463561232156 1.310423814561260 3.278000000000000
0.612902124171846 1.318199930937334 3.275000000000000
0.612714978485076 1.326770092576860 3.274000000000000
0.612340687111536 1.334926788092719 3.272000000000000
0.611592104364456 1.342251070197267 3.268000000000000
0.611404958677686 1.350793826016893 3.267000000000000
0.610094938870296 1.356833860438603 3.260000000000000
0.608597773376136 1.362416579424807 3.252000000000000
0.607100607881975 1.367955449099171 3.244000000000000
0.605977733761355 1.374299326364947 3.238000000000000
0.605790588074585 1.382746161814923 3.237000000000000
0.605790588074585 1.391617425716525 3.237000000000000
0.607100607881975 1.403517241001299 3.244000000000000
0.607287753568745 1.412843079756417 3.245000000000000
0.607662044942285 1.422612531037091 3.247000000000000
0.606539170821665 1.428865969097197 3.241000000000000
0.606913462195205 1.438635420377871 3.243000000000000
0.607474899255515 1.448862187094051 3.246000000000000
0.608410627689365 1.460003584681243 3.251000000000000
0.608036336315825 1.468009548187653 3.249000000000000
0.608223482002595 1.477368273926651 3.250000000000000
0.608410627689365 1.486732480829629 3.251000000000000
0.609346356123216 1.497942392966570 3.256000000000000
0.585013318762380 -0.676613221663752 3.081000000000000
0.590899528720716 -0.674892388307581 3.112000000000000
0.590709650980124 -0.666149570002686 3.111000000000000
0.590519773239533 -0.657412232861771 3.110000000000000
0.590709650980124 -0.649097668860959 3.111000000000000
0.590709650980124 -0.640571718290096 3.111000000000000
0.590899528720716 -0.632248932543315 3.112000000000000
0.590329895498941 -0.623118968664185 3.109000000000000
0.589950140017758 -0.614203131937098 3.107000000000000
0.589760262277167 -0.605493200616083 3.106000000000000
0.589950140017758 -0.597173155451292 3.107000000000000
0.591279284201899 -0.589984400607313 3.114000000000000
0.592798306126631 -0.582943998947617 3.122000000000000
0.588241240352435 0.593201887712875 3.098000000000000
0.587481729390069 0.600915332460001 3.094000000000000
0.586722218427703 0.608606852551208 3.090000000000000
0.586532340687112 0.616875550171834 3.089000000000000
0.585962707465337 0.624733884007608 3.086000000000000
0.585203196502971 0.632370592459015 3.082000000000000
0.584443685540605 0.639985376254501 3.078000000000000
0.583494296837648 0.647367572337662 3.073000000000000
0.582544908134690 0.654722362600922 3.068000000000000
0.582544908134690 0.663130468146215 3.068000000000000
0.582355030394099 0.671319688889132 3.067000000000000
0.582734785875282 0.680168304621169 3.069000000000000
0.583114541356465 0.689027882681166 3.071000000000000
0.583494296837648 0.697898423069123 3.073000000000000
0.584253807800014 0.707239620045713 3.077000000000000
0.585013318762380 0.716602741678223 3.081000000000000
0.587671607130661 0.728341070909818 3.095000000000000
0.589950140017758 0.739679998684521 3.107000000000000
0.624128133324226 1.314021683484705 3.287000000000000
0.622229355918312 1.319004938528746 3.277000000000000
0.621090089474763 1.325554359443771 3.271000000000000
0.621469844955946 1.335334773052405 3.273000000000000
0.620330578512397 1.341840344655591 3.267000000000000
0.619571067550031 1.349139961522229 3.263000000000000
0.618431801106482 1.355585240321635 3.257000000000000
0.616912779181750 1.361159737561869 3.249000000000000
0.615773512738201 1.367533761229535 3.243000000000000
0.614824124035244 1.374299326364947 3.238000000000000
0.615203879516427 1.384027668915771 3.240000000000000
0.615583634997609 1.393766973794555 3.242000000000000
0.616722901441158 1.405247841791683 3.248000000000000
0.617292534662933 1.415455424433933 3.251000000000000
0.617482412403524 1.424803187844971 3.252000000000000
0.615963390478793 1.430188584927896 3.244000000000000
0.616533023700567 1.440409870480095 3.247000000000000
0.616722901441158 1.449754893309143 3.248000000000000
0.617292534662933 1.460003584681243 3.251000000000000
0.615963390478793 1.465750376830024 3.244000000000000
0.616343145959976 1.475549974512587 3.246000000000000
0.616533023700567 1.484903219087605 3.247000000000000
0.618241923365890 1.497942392966570 3.256000000000000
0.587845092548323 -0.670244580499115 3.052000000000000
0.598438631241036 -0.673808049637421 3.107000000000000
0.598823850829861 -0.665721315698602 3.109000000000000
0.598631241035448 -0.656989459721667 3.108000000000000
0.599016460624274 -0.648889022872897 3.110000000000000
0.598823850829861 -0.640159907477952 3.109000000000000
0.599016460624274 -0.631842602895151 3.110000000000000
0.598246021446623 -0.622517695937909 3.106000000000000
0.598246021446623 -0.614005448276996 3.106000000000000
0.598246021446623 -0.605493200616083 3.106000000000000
0.598823850829861 -0.597557560443536 3.109000000000000
0.599786899801926 -0.589984400607313 3.114000000000000
0.597282972474558 0.593776324660305 3.101000000000000
0.596897752885732 0.601886430282335 3.099000000000000
0.596319923502493 0.609788613429948 3.096000000000000
0.595549484324841 0.617474652357174 3.092000000000000
0.594393825558364 0.624733884007608 3.086000000000000
0.593815996175125 0.632575774351441 3.083000000000000
0.593238166791886 0.640401221203335 3.080000000000000
0.592467727614234 0.647999561506882 3.076000000000000
0.590926849258930 0.654722362600922 3.068000000000000
0.590349019875692 0.662482035485055 3.065000000000000
0.590349019875692 0.670881919284379 3.065000000000000
0.591119459053343 0.680168304621169 3.069000000000000
0.592082508025408 0.689700980580236 3.074000000000000
0.592660337408647 0.698806849262509 3.077000000000000
0.593815996175125 0.708618702827732 3.083000000000000
0.594779045147189 0.718230855664509 3.088000000000000
0.596897752885732 0.729282384087085 3.099000000000000
0.599016460624274 0.740394205313440 3.110000000000000
0.629834027730346 1.325149115066075 3.270000000000000
0.630604466907998 1.335742758012091 3.274000000000000
0.630026637524759 1.343483246822295 3.271000000000000
0.629063588552695 1.350380359893227 3.266000000000000
0.627907929786217 1.356833860438603 3.260000000000000
0.627522710197391 1.364930263150683 3.258000000000000
0.626559661225326 1.371750639925895 3.253000000000000
0.625211392664435 1.377694753977955 3.246000000000000
0.625018782870023 1.386163514083851 3.245000000000000
0.625018782870023 1.395056702641373 3.245000000000000
0.626559661225326 1.407411092779663 3.253000000000000
0.627137490608565 1.417632378331863 3.256000000000000
0.627330100402978 1.426993844652850 3.257000000000000
0.625789222047674 1.432392944645725 3.249000000000000
0.626559661225326 1.443071545633431 3.253000000000000
0.626367051430913 1.451540305739327 3.252000000000000
0.626944880814152 1.461799959439386 3.255000000000000
0.625789222047674 1.468009548187653 3.249000000000000
0.626752271019739 1.479186573340715 3.254000000000000
0.626367051430913 1.487189796265135 3.252000000000000
0.627715319991804 1.499322561019058 3.259000000000000
0.593643876784373 -0.667389672390829 3.039000000000000
0.606145755071375 -0.672940578701293 3.103000000000000
0.606536438767844 -0.664864807090434 3.105000000000000
0.607317806160781 -0.657200846291718 3.109000000000000
0.607122464312547 -0.648471730896773 3.108000000000000
0.606927122464313 -0.639748096665808 3.107000000000000
0.606731780616078 -0.631029943598823 3.106000000000000
0.606536438767844 -0.622317271695817 3.105000000000000
0.606927122464313 -0.614203131937098 3.107000000000000
0.606731780616078 -0.605493200616083 3.106000000000000
0.607122464312547 -0.597365357947414 3.108000000000000
0.608489857250188 -0.590173862521445 3.115000000000000
0.606536438767844 0.594542240590212 3.105000000000000
0.608294515401953 0.604799723749335 3.114000000000000
0.607122464312547 0.612152135187428 3.108000000000000
0.605169045830203 0.618672856727855 3.098000000000000
0.603606311044328 0.625543649249354 3.090000000000000
0.602434259954921 0.632780956243868 3.084000000000000
0.601457550713749 0.640193298728918 3.079000000000000
