# This PCD file was generated using the MATLAB® pcwrite function
# from Computer Vision Toolbox®.
# .PCD v.7 - Point Cloud Data file format
VERSION .7
FIELDS x y z
SIZE 8 8 8
TYPE F F F
COUNT 1 1 1
WIDTH 866
HEIGHT 1
VIEWPOINT 0 0 0 1 0 0 0
POINTS 866
DATA ascii
-0.247237210573048 0.174906946279112 4.022000000000000
-0.243548937914077 0.194014064666773 3.962000000000000
-0.243548937914077 0.204872250511118 3.962000000000000
-0.243979236390957 0.216111585536304 3.969000000000000
-0.243917765179974 0.226931764989613 3.968000000000000
-0.244778362133734 0.238645428983299 3.982000000000000
-0.243303053070146 0.248054307372714 3.958000000000000
-0.242626869749334 0.258181996568791 3.947000000000000
-0.243118639437197 0.269544296026704 3.955000000000000
-0.244655419711768 0.282155632170048 3.980000000000000
-0.244962775766683 0.293431318274749 3.985000000000000
-0.243548937914077 0.302595923110232 3.962000000000000
-0.242872754593266 0.312583842624820 3.951000000000000
-0.244225121234888 0.325212707530571 3.973000000000000
-0.244593948500786 0.336608617486009 3.979000000000000
-0.244532477289803 0.347426056357328 3.978000000000000
-0.243610409125060 0.356976929780808 3.963000000000000
-0.243180110648180 0.367188129991285 3.956000000000000
-0.242258042483437 0.376596493151286 3.941000000000000
-0.241704801584591 0.386512434020489 3.932000000000000
-0.241704801584591 0.397288402405135 3.932000000000000
-0.239000068301346 0.403498035002713 3.888000000000000
-0.240721262208866 0.502992956704286 3.916000000000000
-0.240045078888054 0.512282027811426 3.905000000000000
-0.239000068301346 0.520707245550665 3.888000000000000
-0.238754183457414 0.530815958957044 3.884000000000000
-0.238385356191517 0.540623931858169 3.878000000000000
-0.238815654668397 0.552246948361954 3.885000000000000
-0.238016528925620 0.561010551240661 3.872000000000000
-0.237155931971860 0.569555269316992 3.858000000000000
-0.235803565330237 0.576820289076588 3.836000000000000
-0.235557680486306 0.586720718251728 3.832000000000000
-0.236910047127928 0.600651359602725 3.854000000000000
-0.237955057714637 0.613909626568298 3.871000000000000
-0.238323884980534 0.625486414935076 3.877000000000000
-0.237524759237757 0.633978700196774 3.864000000000000
-0.235557680486306 0.639230269179963 3.832000000000000
-0.234881497165494 0.647867081773485 3.821000000000000
-0.234512669899597 0.657305076105962 3.815000000000000
-0.235065910798443 0.669335715812610 3.824000000000000
-0.235803565330237 0.681949014212658 3.836000000000000
-0.236110921385151 0.693364469998849 3.841000000000000
-0.235619151697288 0.702424987530352 3.833000000000000
-0.235065910798443 0.711255657931518 3.824000000000000
-0.235188853220408 0.722113120262219 3.826000000000000
-0.234942968376477 0.731832671026019 3.822000000000000
-0.235127382009426 0.742889834085166 3.825000000000000
-0.235004439587460 0.752978639903970 3.823000000000000
-0.232791475992077 0.797780994612016 3.787000000000000
-0.233775015367803 0.811574036822460 3.803000000000000
-0.233836486578786 0.822212614350783 3.804000000000000
-0.233467659312888 0.831324479426451 3.798000000000000
-0.233098832046991 0.840403457518239 3.792000000000000
-0.233836486578786 0.853488136020565 3.804000000000000
-0.234020900211734 0.864594629555532 3.807000000000000
-0.233529130523871 0.873189248148737 3.799000000000000
-0.232975889625026 0.881507429717775 3.790000000000000
-0.233221774468957 0.892835548637108 3.794000000000000
-0.233467659312888 0.904185592212362 3.798000000000000
-0.233652072945837 0.915316750985239 3.801000000000000
-0.234697083532546 0.929874053814068 3.818000000000000
-0.234512669899597 0.939598723985025 3.815000000000000
-0.234205313844683 0.948808888255510 3.810000000000000
-0.232852947203060 0.953711526339734 3.788000000000000
-0.232730004781094 0.963583826181328 3.786000000000000
-0.232422648726180 0.972673404844253 3.781000000000000
-0.233037360836008 0.985635480670675 3.791000000000000
-0.233344716890923 0.997338697565815 3.796000000000000
-0.233467659312888 1.008272896192235 3.798000000000000
-0.233529130523871 1.018949841868419 3.799000000000000
-0.234266785055666 1.032612783170634 3.811000000000000
-0.234082371422717 1.042236051807962 3.808000000000000
-0.234389727477631 1.054054373146681 3.813000000000000
-0.233406188101906 1.060037370576016 3.797000000000000
-0.233406188101906 1.112067319656002 3.797000000000000
-0.234266785055666 1.126612004845349 3.811000000000000
-0.233283245679940 1.132282575927824 3.795000000000000
-0.233221774468957 1.142381982317765 3.794000000000000
-0.232791475992077 1.150652850479328 3.787000000000000
-0.233098832046991 1.162564351605707 3.792000000000000
-0.232914418414043 1.172028666487615 3.789000000000000
-0.232545591148146 1.180540344107474 3.783000000000000
-0.231807936616351 1.187130303711296 3.771000000000000
-0.230701454818660 1.191749214823260 3.753000000000000
-0.230455569974729 1.200753473687672 3.749000000000000
-0.230639983607677 1.211996996322139 3.752000000000000
-0.230947339662591 1.223908497448518 3.757000000000000
-0.230885868451609 1.233876355902940 3.756000000000000
-0.230086742708831 1.239863749225785 3.743000000000000
-0.229656444231951 1.247783822892629 3.736000000000000
-0.228918789700157 1.253981879271882 3.724000000000000
-0.228672904856226 1.262829924962865 3.720000000000000
-0.228427020012294 1.271656045997928 3.716000000000000
-0.228304077590329 1.281150145524903 3.714000000000000
-0.227935250324431 1.289242514100294 3.708000000000000
-0.227504951847551 1.296951562953909 3.701000000000000
-0.227504951847551 1.307094456898867 3.701000000000000
-0.227750836691483 1.318661006451330 3.705000000000000
-0.227812307902466 1.329173517208114 3.706000000000000
-0.227935250324431 1.340052904194735 3.708000000000000
-0.226521412471826 1.341839862313161 3.685000000000000
-0.222587254968923 1.328458828236764 3.621000000000000
-0.222525783757940 1.338012858810697 3.620000000000000
-0.228304077590329 1.382935360633184 3.714000000000000
-0.229410559388020 1.399865645708523 3.732000000000000
-0.229472030599003 1.410471336252967 3.733000000000000
-0.229656444231951 1.421843666240963 3.736000000000000
-0.229472030599003 1.430932521390242 3.733000000000000
-0.229840857864900 1.443479475781477 3.739000000000000
-0.229656444231951 1.452560109184787 3.736000000000000
-0.230086742708831 1.465539713773617 3.743000000000000
-0.229533501809986 1.472249173714530 3.734000000000000
-0.230332627552763 1.487643801077597 3.747000000000000
-0.231254695717506 1.503909209999835 3.762000000000000
-0.231930879038317 1.518646821198950 3.773000000000000
-0.231930879038317 1.528987037047187 3.773000000000000
-0.231869407827334 1.538919267935739 3.772000000000000
-0.231807936616351 1.548846017660310 3.771000000000000
-0.240659790997883 1.650908009624924 3.915000000000000
-0.241766272795574 1.669277100245008 3.933000000000000
-0.241889215217540 1.680910147278876 3.935000000000000
-0.241704801584591 1.690404608562674 3.932000000000000
-0.213340618810191 -0.240204951683540 3.632000000000000
-0.210344921794959 -0.227018005623674 3.581000000000000
-0.211813400723994 -0.218720345532577 3.606000000000000
-0.214809097739225 -0.211791419785906 3.657000000000000
-0.214809097739225 -0.201769111448507 3.657000000000000
-0.221035448398333 -0.145740631320467 3.763000000000000
-0.224148623727887 -0.137335255394836 3.816000000000000
-0.225617102656922 -0.127708413038593 3.841000000000000
-0.226263233385698 -0.117517427360874 3.852000000000000
-0.228612799672154 -0.108071408604331 3.892000000000000
-0.229728843658220 -0.097880576399204 3.911000000000000
-0.230551191858480 -0.087474170014744 3.925000000000000
-0.231021105115771 -0.076873752350049 3.933000000000000
-0.231549757530223 -0.066246290622277 3.942000000000000
-0.231491018373062 -0.055428851750958 3.941000000000000
-0.232019670787515 -0.044730134891446 3.950000000000000
-0.233135714773581 -0.034067922584040 3.969000000000000
-0.237893586503654 -0.023663829250780 4.050000000000000
-0.240830544361724 -0.012719589131948 4.100000000000000
-0.235015367802746 0.053377953662240 4.001000000000000
-0.238128543132300 0.065195354165411 4.054000000000000
-0.235602759374360 0.075496313917223 4.011000000000000
-0.237599890717847 0.087221926848385 4.045000000000000
-0.236248890103135 0.097748600932894 4.022000000000000
-0.235250324431391 0.108311472624326 4.005000000000000
-0.235778976845844 0.119555565299847 4.014000000000000
-0.233899323816679 0.194993439046716 3.982000000000000
-0.233253193087904 0.205337634220003 3.971000000000000
-0.233018236459258 0.216002685770350 3.967000000000000
-0.234604193702616 0.228418717078759 3.994000000000000
-0.233605628030872 0.238345773748513 3.977000000000000
-0.233018236459258 0.248618352033238 3.967000000000000
-0.231784714158869 0.258116584357854 3.946000000000000
-0.232665801516290 0.269953212784267 3.961000000000000
-0.233546888873711 0.281872058670379 3.976000000000000
-0.233488149716549 0.292694978705678 3.975000000000000
-0.232195888258999 0.301908552260158 3.953000000000000
-0.232019670787515 0.312504727503933 3.950000000000000
-0.232607062359128 0.324148583393169 3.960000000000000
-0.233429410559388 0.336185636061674 3.974000000000000
-0.233605628030872 0.347338719490471 3.977000000000000
-0.233664367188034 0.358328091513514 3.978000000000000
-0.232900758144935 0.368023492268818 3.965000000000000
-0.231784714158869 0.377074286215421 3.946000000000000
-0.231314800901578 0.387102229189391 3.938000000000000
-0.229082712929445 0.394055129547311 3.900000000000000
-0.229023973772283 0.404639618949480 3.899000000000000
-0.230140017758350 0.417349046003409 3.918000000000000
-0.229611365343897 0.512806772526214 3.909000000000000
-0.229141452086606 0.522448293439595 3.901000000000000
-0.228554060514992 0.531772630355782 3.891000000000000
-0.228671538829315 0.542715050728173 3.893000000000000
-0.228847756300799 0.553810581935180 3.896000000000000
-0.228025408100540 0.562459442127130 3.882000000000000
-0.226791885800150 0.569998158328903 3.861000000000000
-0.226087015914214 0.578775102360737 3.849000000000000
-0.225323406871115 0.587333161590195 3.836000000000000
-0.225910798442729 0.599404548269871 3.846000000000000
-0.226850624957312 0.612482298580927 3.862000000000000
-0.227261799057441 0.624195754290381 3.869000000000000
-0.225910798442729 0.631025383270391 3.846000000000000
-0.224853493613824 0.638563014201696 3.828000000000000
-0.224442319513694 0.647867081773485 3.821000000000000
-0.224089884570726 0.657305076105962 3.815000000000000
-0.225088450242470 0.670735999736904 3.832000000000000
-0.225969537599891 0.683904551010452 3.847000000000000
-0.225617102656922 0.693364469998849 3.841000000000000
-0.224501058670856 0.700409157928778 3.822000000000000
-0.224324841199372 0.710325668839035 3.819000000000000
-0.224324841199372 0.720791951458812 3.819000000000000
-0.224207362885049 0.730875276113635 3.817000000000000
-0.224148623727887 0.741141858004966 3.816000000000000
-0.224559797828017 0.752978639903970 3.823000000000000
-0.222210231541561 0.796938342386389 3.783000000000000
-0.222797623113175 0.809440000438493 3.793000000000000
-0.223385014684789 0.821996470130397 3.803000000000000
-0.223326275527628 0.832200018635957 3.802000000000000
-0.222562666484530 0.839738581365139 3.789000000000000
-0.222680144798853 0.850571378457929 3.791000000000000
-0.222797623113175 0.861415137878680 3.793000000000000
-0.222797623113175 0.871810165366717 3.793000000000000
-0.222268970698723 0.880111903443815 3.784000000000000
-0.222092753227239 0.889776280810993 3.781000000000000
-0.222680144798853 0.902519110078216 3.791000000000000
-0.223502492999112 0.916279988818425 3.805000000000000
-0.224442319513694 0.930604703934927 3.821000000000000
-0.223972406256403 0.939106142740472 3.813000000000000
-0.222797623113175 0.944575357782979 3.793000000000000
-0.222034014070077 0.951697352049681 3.780000000000000
-0.221740318284270 0.960784190130616 3.775000000000000
-0.222268970698723 0.973445163694962 3.784000000000000
-0.222797623113175 0.986155467735128 3.793000000000000
-0.223678710470596 1.000491506936413 3.808000000000000
-0.223913667099242 1.011989541939126 3.812000000000000
-0.224031145413565 1.022973071041366 3.814000000000000
-0.223561232156274 1.031258003869702 3.806000000000000
-0.223385014684789 1.040867569597079 3.803000000000000
-0.223619971313435 1.052395751001683 3.807000000000000
-0.223561232156274 1.062549969031424 3.806000000000000
-0.222738883956014 1.110602917075470 3.792000000000000
-0.223619971313435 1.125429520452963 3.807000000000000
-0.223737449627758 1.136459639449033 3.809000000000000
-0.223208797213305 1.144188595890223 3.800000000000000
-0.222973840584660 1.153387436075925 3.796000000000000
-0.222621405641691 1.161951184753594 3.790000000000000
-0.222386449013046 1.171100694463476 3.786000000000000
-0.221329144184140 1.175859375256930 3.768000000000000
-0.220741752612526 1.183037836474954 3.758000000000000
-0.219919404412267 1.188891303037113 3.744000000000000
-0.219684447783621 1.197870896663615 3.740000000000000
-0.220213100198074 1.211027915568150 3.749000000000000
-0.220683013455365 1.223908497448518 3.757000000000000
-0.220859230926849 1.235190388230845 3.760000000000000
-0.220448056826720 1.243176235865448 3.753000000000000
-0.219508230312137 1.248117812138586 3.737000000000000
-0.218862099583362 1.254655338927775 3.726000000000000
-0.218098490540264 1.260453632093311 3.713000000000000
-0.218450925483232 1.272682678973707 3.719000000000000
-0.218392186326071 1.282529951820568 3.718000000000000
-0.218098490540264 1.290980974879825 3.713000000000000
-0.217922273068779 1.300105457594975 3.710000000000000
-0.217863533911618 1.309919843457957 3.709000000000000
-0.218098490540264 1.321508317666340 3.713000000000000
-0.217981012225941 1.330966789627445 3.711000000000000
-0.217569838125811 1.338607323931310 3.704000000000000
-0.216336315825422 1.341111591017468 3.683000000000000
-0.212753227238577 1.328825704466600 3.622000000000000
-0.212518270609931 1.337273625187045 3.618000000000000
-0.217217403182843 1.376977642332126 3.698000000000000
-0.218862099583362 1.397615057853686 3.726000000000000
-0.219038317054846 1.408959982021782 3.729000000000000
-0.219038317054846 1.419179612262460 3.729000000000000
-0.219332012840653 1.431315841112018 3.734000000000000
-0.219273273683492 1.441163113958880 3.733000000000000
-0.219625708626460 1.453726511842055 3.739000000000000
-0.219097056212007 1.460449674692918 3.730000000000000
-0.219449491154976 1.473037737814002 3.736000000000000
-0.220330578512397 1.489231891604501 3.751000000000000
-0.220917970084011 1.503509446786119 3.761000000000000
-0.221152926712656 1.515426790833301 3.765000000000000
-0.221622839969947 1.528987037047187 3.773000000000000
-0.221622839969947 1.539327252895425 3.773000000000000
-0.221446622498463 1.548435292118634 3.770000000000000
-0.218803360426200 1.540161310655931 3.725000000000000
-0.231549757530223 1.662293582105096 3.942000000000000
-0.230081278601188 1.662486245018992 3.917000000000000
-0.230374974386995 1.675356949841868 3.922000000000000
-0.229317669558090 1.678367139325707 3.904000000000000
-0.200561437060310 -0.285902150260629 3.581000000000000
-0.202353664367188 -0.258751818376150 3.613000000000000
-0.202353664367188 -0.248850095646311 3.613000000000000
-0.201345536507069 -0.237757929873988 3.595000000000000
-0.203585820640667 -0.230441343323668 3.635000000000000
-0.205826104774264 -0.222905510214149 3.675000000000000
-0.204481934294106 -0.211443935914231 3.651000000000000
-0.203865856157366 -0.200831163705925 3.640000000000000
-0.211258793798238 -0.146089200462610 3.772000000000000
-0.215571340755413 -0.138522903043690 3.849000000000000
-0.215907383375453 -0.128173895408429 3.855000000000000
-0.215291305238713 -0.117273362091174 3.844000000000000
-0.218203674612390 -0.108182478911222 3.896000000000000
-0.218931766955809 -0.097830522409739 3.909000000000000
-0.219491837989208 -0.087340451538289 3.919000000000000
-0.219547845092548 -0.076619656550265 3.920000000000000
-0.219267809575849 -0.065792548905686 3.915000000000000
-0.220331944539307 -0.055330399083549 3.934000000000000
-0.221396079502766 -0.044764107145794 3.953000000000000
-0.222180178949525 -0.034050755578455 3.967000000000000
-0.222180178949525 -0.023178866824159 3.967000000000000
-0.227444846663479 -0.001469094456899 4.061000000000000
-0.223580356533024 0.097019496500277 3.992000000000000
-0.223916399153063 0.108122164182786 3.998000000000000
-0.223748377843044 0.118989657043570 3.995000000000000
-0.218651731439109 0.169775414787084 3.904000000000000
-0.222852264189605 0.194846532889724 3.979000000000000
-0.221676115019466 0.204665413307170 3.958000000000000
-0.222012157639506 0.215839336121419 3.964000000000000
-0.222068164742845 0.226760193594712 3.965000000000000
-0.221508093709446 0.237027290715456 3.955000000000000
-0.221284065296086 0.247615605970084 3.951000000000000
-0.221172051089406 0.258312820990666 3.949000000000000
-0.221396079502766 0.269407990440850 3.953000000000000
-0.222068164742845 0.281092231546291 3.965000000000000
-0.222012157639506 0.291885005179700 3.964000000000000
-0.221452086606106 0.301984926799055 3.954000000000000
-0.221396079502766 0.312742072866594 3.953000000000000
-0.221956150536166 0.324394150501800 3.963000000000000
-0.222180178949525 0.335593462067605 3.967000000000000
-0.222236186052865 0.346552687688757 3.968000000000000
-0.221676115019466 0.356526542536573 3.958000000000000
-0.221340072399426 0.366816857867937 3.952000000000000
-0.220723994262687 0.376596493151286 3.941000000000000
-0.221172051089406 0.388183520332378 3.949000000000000
-0.220443958745987 0.397692561512363 3.936000000000000
-0.219827880609248 0.407337908278202 3.925000000000000
-0.218987774059149 0.416496878477113 3.910000000000000
-0.218931766955809 0.427103292535203 3.909000000000000
-0.219547845092548 0.514249820491880 3.920000000000000
-0.218427703025750 0.522314366678908 3.900000000000000
-0.218091660405710 0.532182632383813 3.894000000000000
-0.217811624889010 0.542157419029505 3.889000000000000
-0.218147667509050 0.553668433428523 3.895000000000000
-0.217307560958951 0.562169663949836 3.880000000000000
-0.216019397582132 0.569407639646355 3.857000000000000
-0.214843248411994 0.576820289076588 3.836000000000000
-0.214563212895294 0.586567607417111 3.831000000000000
-0.214787241308654 0.597690182687195 3.835000000000000
-0.215515333652073 0.610262010600571 3.848000000000000
-0.215627347858753 0.621130435259232 3.850000000000000
-0.215067276825353 0.630040944294930 3.840000000000000
-0.215011269722014 0.640397965391931 3.839000000000000
-0.214115156068575 0.648206190426599 3.823000000000000
-0.213835120551875 0.657821960831602 3.818000000000000
-0.214283177378594 0.669685786793683 3.826000000000000
-0.215235298135373 0.683193446720345 3.843000000000000
-0.214675227101974 0.691920336762715 3.833000000000000
-0.214451198688614 0.701691958584325 3.829000000000000
-0.214395191585274 0.711999649205505 3.828000000000000
-0.214563212895294 0.723056812264652 3.831000000000000
-0.214003141861895 0.731641192043542 3.821000000000000
-0.213779113448535 0.741336077569433 3.817000000000000
-0.213667099241855 0.751402958732316 3.815000000000000
-0.212714978485076 0.789689557834502 3.798000000000000
-0.212770985588416 0.800308951288896 3.799000000000000
-0.212826992691756 0.810933825907270 3.800000000000000
-0.212995014001776 0.821996470130397 3.803000000000000
-0.212939006898436 0.832200018635957 3.802000000000000
-0.212658971381736 0.841511584440072 3.797000000000000
-0.212378935865037 0.850795744424286 3.792000000000000
-0.212378935865037 0.861188031330333 3.792000000000000
-0.212378935865037 0.871580318236381 3.792000000000000
-0.212434942968377 0.882205192854755 3.793000000000000
-0.212098900348337 0.891188250576892 3.787000000000000
-0.212378935865037 0.902757178954523 3.792000000000000
-0.212995014001776 0.915798369901832 3.803000000000000
-0.213555085035175 0.928656303612635 3.813000000000000
-0.212882999795096 0.936150655273154 3.801000000000000
-0.212322928761697 0.944077295374446 3.791000000000000
-0.211874871934977 0.952452667408451 3.783000000000000
-0.212042893244997 0.963583826181328 3.786000000000000
-0.212042893244997 0.973959669595435 3.786000000000000
-0.212490950071716 0.986415461267355 3.794000000000000
-0.212995014001776 0.999177836365331 3.803000000000000
-0.213387063725155 1.011458592546713 3.810000000000000
-0.213555085035175 1.022704855763170 3.813000000000000
-0.213051021105116 1.030716092149329 3.804000000000000
-0.212882999795096 1.040320176712727 3.801000000000000
-0.213443070828495 1.053501499098348 3.811000000000000
-0.213835120551875 1.065900100305301 3.818000000000000
-0.212210914555017 1.109724275527151 3.789000000000000
-0.213387063725155 1.126316383747253 3.810000000000000
-0.213219042415136 1.135862916088860 3.807000000000000
-0.212658971381736 1.143285289103994 3.797000000000000
-0.212098900348337 1.150652850479328 3.787000000000000
-0.211706850624957 1.158885350493031 3.780000000000000
-0.211034765384878 1.165532862318642 3.768000000000000
-0.210306673041459 1.171802535586457 3.755000000000000
-0.210306673041459 1.182093420958875 3.755000000000000
-0.210138651731439 1.191431669069243 3.752000000000000
-0.210362680144799 1.202995478039717 3.756000000000000
-0.209578580698040 1.208766727142176 3.742000000000000
-0.210306673041459 1.223256962448545 3.755000000000000
-0.209634587801380 1.229605750837248 3.743000000000000
-0.209298545181340 1.237876257241988 3.737000000000000
-0.208794481251281 1.245111908924979 3.728000000000000
-0.208178403114541 1.251624770476258 3.717000000000000
-0.207898367597842 1.260114161683375 3.712000000000000
-0.208066388907861 1.271313835006002 3.715000000000000
-0.208402431527901 1.283564806542317 3.721000000000000
-0.208066388907861 1.291676359191638 3.715000000000000
-0.207954374701182 1.301156755808663 3.713000000000000
-0.207954374701182 1.311332536737501 3.713000000000000
-0.208178403114541 1.322931973273844 3.717000000000000
-0.207506317874462 1.328814862724248 3.705000000000000
-0.206610204221023 1.333186397943467 3.689000000000000
-0.204985998224165 1.332736471117006 3.660000000000000
-0.202633699883888 1.327358199547256 3.618000000000000
-0.202353664367188 1.335425541127914 3.613000000000000
-0.207282289461102 1.378094714513574 3.701000000000000
-0.208234410217881 1.394614274047236 3.718000000000000
-0.208346424424561 1.405559435001617 3.720000000000000
-0.208682467044601 1.418037874843102 3.726000000000000
-0.208346424424561 1.425949365007153 3.720000000000000
-0.209130523871320 1.441549174262647 3.734000000000000
-0.208626459941261 1.448283299441469 3.725000000000000
-0.209018509664640 1.461232757628410 3.732000000000000
-0.208794481251281 1.469883481416113 3.728000000000000
-0.209410559388020 1.484467620023788 3.739000000000000
-0.209914623318079 1.498312525007810 3.748000000000000
-0.210474694351479 1.512609264263359 3.758000000000000
-0.210866744074858 1.525745082025619 3.765000000000000
-0.211650843521617 1.541775162653541 3.779000000000000
-0.210586708558159 1.544328036701874 3.760000000000000
-0.220107916125948 1.657233327669464 3.930000000000000
-0.219267809575849 1.661637388115740 3.915000000000000
-0.219379823782529 1.673221104673788 3.917000000000000
-0.192962229355918 -0.279249146308710 3.622000000000000
-0.193494979851103 -0.270066333046486 3.632000000000000
-0.193335154702548 -0.259897688593150 3.629000000000000
-0.192482753910252 -0.248850095646311 3.613000000000000
-0.192536028959771 -0.239014508641055 3.614000000000000
-0.194400655692917 -0.231328875319963 3.649000000000000
-0.197330783416433 -0.224664492471621 3.704000000000000
-0.197650433713544 -0.214860860652368 3.710000000000000
-0.196638207772693 -0.203645006933672 3.691000000000000
-0.201805887575985 -0.146708878937531 3.788000000000000
-0.203777064408169 -0.137659159299069 3.825000000000000
-0.206067891537463 -0.128606129037562 3.868000000000000
-0.204682740249983 -0.117212345773749 3.842000000000000
-0.206387541834574 -0.107571592223325 3.874000000000000
-0.208252168567721 -0.097830522409739 3.909000000000000
-0.208571818864832 -0.087251305887318 3.915000000000000
-0.208305443617239 -0.076424198242739 3.910000000000000
-0.208411993716276 -0.065742133159398 3.912000000000000
-0.211129021241719 -0.044877347993620 3.963000000000000
-0.212940372925347 -0.012400048234243 3.997000000000000
-0.214485349361382 -0.001456432968105 4.026000000000000
-0.212087972133051 0.107662415110473 3.981000000000000
-0.212673997677754 0.118900303108368 3.992000000000000
-0.208411993716276 0.170123315227222 3.912000000000000
-0.213260023222458 0.185051232439721 4.003000000000000
-0.211448671538829 0.194356845699753 3.969000000000000
-0.210969196093163 0.204768831909144 3.960000000000000
-0.211448671538829 0.216111585536304 3.969000000000000
-0.211555221637866 0.227103336384515 3.971000000000000
-0.210915921043645 0.237267014903285 3.959000000000000
-0.210915921043645 0.248116979001661 3.959000000000000
-0.211235571340755 0.259359416365659 3.965000000000000
-0.211022471142682 0.269953212784267 3.961000000000000
-0.210596270746534 0.280241511047286 3.953000000000000
-0.211129021241719 0.291811371222793 3.963000000000000
-0.211129021241719 0.302672297649129 3.963000000000000
-0.211715046786422 0.314403490405222 3.974000000000000
-0.211928146984496 0.325621986044956 3.978000000000000
-0.211661771736903 0.336101039776807 3.973000000000000
-0.210862645994126 0.345679319020187 3.958000000000000
-0.210063520251349 0.355175380803867 3.943000000000000
-0.209956970152312 0.365795859528729 3.941000000000000
-0.209530769756164 0.375832024248669 3.933000000000000
-0.209424219657127 0.386414134825671 3.931000000000000
-0.209903695102794 0.398096720619591 3.940000000000000
-0.209104569360016 0.407337908278202 3.925000000000000
-0.208411993716276 0.416709920358687 3.912000000000000
-0.207293217676388 0.425136585125217 3.891000000000000
-0.206973567379277 0.435128177019672 3.885000000000000
-0.207293217676388 0.499781816786613 3.891000000000000
-0.207506317874462 0.510970166024457 3.895000000000000
-0.207346492725907 0.521242952593413 3.892000000000000
-0.206387541834574 0.529449285530275 3.874000000000000
-0.206280991735537 0.539787484310168 3.872000000000000
-0.206547366983130 0.551109760308699 3.877000000000000
-0.206547366983130 0.561734996683896 3.877000000000000
-0.205268765794686 0.568817120963808 3.853000000000000
-0.204363089952872 0.576820289076588 3.836000000000000
-0.204203264804317 0.586873829086345 3.833000000000000
-0.204736015299501 0.598936994020050 3.843000000000000
-0.204949115497575 0.610103418601974 3.847000000000000
-0.205375315893723 0.621937098162166 3.855000000000000
-0.205108940646131 0.631681675920698 3.850000000000000
-0.204522915101428 0.640397965391931 3.839000000000000
-0.204203264804317 0.649901733692167 3.833000000000000
-0.203563964210095 0.658338845557242 3.821000000000000
-0.203990164606243 0.670210893265294 3.829000000000000
-0.203777064408169 0.679993477414864 3.825000000000000
-0.204309814903354 0.692281370071748 3.835000000000000
-0.204043439655761 0.701875215820832 3.830000000000000
-0.204576190150946 0.714231623027466 3.840000000000000
-0.204629465200464 0.724944196269520 3.841000000000000
-0.204309814903354 0.734321897798216 3.835000000000000
-0.204043439655761 0.743860931907500 3.830000000000000
-0.203563964210095 0.752584719611056 3.821000000000000
-0.204309814903354 0.765852293593067 3.835000000000000
-0.202072262823578 0.788649945462418 3.793000000000000
-0.203510689160576 0.804732875473436 3.820000000000000
-0.203031213714910 0.813281265929633 3.811000000000000
-0.202818113516836 0.822861047011943 3.807000000000000
-0.202764838467318 0.833075557845464 3.806000000000000
-0.202445188170207 0.842176460593172 3.800000000000000
-0.202232087972133 0.851693208289712 3.796000000000000
-0.201965712724541 0.860960924781987 3.791000000000000
-0.201912437675022 0.871120623975707 3.790000000000000
-0.202285363021652 0.883135543704061 3.797000000000000
-0.202285363021652 0.893541533520058 3.797000000000000
-0.202391913120688 0.904423661088669 3.799000000000000
-0.202072262823578 0.913390275318867 3.793000000000000
-0.202232087972133 0.924515952927764 3.796000000000000
-0.202391913120688 0.935658074028601 3.799000000000000
-0.202178812922615 0.945073420191512 3.795000000000000
-0.202445188170207 0.956732787774812 3.800000000000000
-0.202445188170207 0.967146999336779 3.800000000000000
-0.202498463219725 0.977818463848983 3.801000000000000
-0.202178812922615 0.986675454799581 3.795000000000000
-0.202338638071170 0.997864165794248 3.798000000000000
-0.202871388566355 1.010927643154300 3.808000000000000
-0.203510689160576 1.024582362710545 3.820000000000000
-0.203244313912984 1.033696606611380 3.815000000000000
-0.202924663615873 1.042509748250138 3.809000000000000
-0.203191038863466 1.054330810170848 3.814000000000000
-0.203670514309132 1.067295988336083 3.823000000000000
-0.203137763813947 1.074954051402356 3.813000000000000
-0.202018987774059 1.110602917075470 3.792000000000000
-0.202711563417799 1.124838278256771 3.805000000000000
-0.202605013318762 1.134669469368515 3.803000000000000
-0.201592787377911 1.139370959697001 3.784000000000000
-0.201379687179837 1.148525950570863 3.780000000000000
-0.201006761833208 1.156739266510636 3.773000000000000
-0.200207636090431 1.162439622238178 3.758000000000000
-0.199301960248617 1.167433631325948 3.741000000000000
-0.199355235298135 1.178000953722532 3.742000000000000
-0.199674885595246 1.190161486053178 3.748000000000000
-0.199621610545728 1.200112901015659 3.747000000000000
-0.199461785397172 1.209412780978169 3.744000000000000
-0.198982309951506 1.216741612448820 3.735000000000000
-0.198502834505840 1.224021113443651 3.726000000000000
-0.198502834505840 1.234232521938359 3.726000000000000
-0.198236459258247 1.242773984203285 3.721000000000000
-0.198023359060173 1.251624770476258 3.717000000000000
-0.197437333515470 1.258077339223757 3.706000000000000
-0.197703708763063 1.269944991038297 3.711000000000000
-0.198236459258247 1.283564806542317 3.721000000000000
-0.198023359060173 1.292371743503450 3.717000000000000
-0.197703708763063 1.300455890332871 3.711000000000000
-0.197756983812581 1.310979363417615 3.712000000000000
-0.198023359060173 1.322931973273844 3.717000000000000
-0.197597158664026 1.330249480659713 3.709000000000000
-0.196744757871730 1.334631978206892 3.693000000000000
-0.192269653712178 1.324056313478730 3.609000000000000
-0.190884502424698 1.324337036773129 3.583000000000000
-0.197970084010655 1.393864078095624 3.716000000000000
-0.197863533911618 1.403292403654840 3.714000000000000
-0.198023359060173 1.414612662585027 3.717000000000000
-0.198396284406803 1.427482643894257 3.724000000000000
-0.198396284406803 1.437688571224985 3.724000000000000
-0.198609384604877 1.449449702098738 3.728000000000000
-0.198236459258247 1.456925801483203 3.721000000000000
-0.198396284406803 1.468306353217169 3.724000000000000
-0.198236459258247 1.477321212652719 3.721000000000000
-0.199088860050543 1.493915129656934 3.737000000000000
-0.199834710743802 1.509791737693416 3.751000000000000
-0.200474011338023 1.524934593270227 3.763000000000000
-0.199994535892357 1.531575538661390 3.754000000000000
-0.202285363021652 1.559524881743887 3.797000000000000
-0.210436445597978 1.654841786201718 3.950000000000000
-0.209530769756164 1.658498391278372 3.933000000000000
-0.208891469161943 1.664183958825496 3.921000000000000
-0.207932518270610 1.667240738203165 3.903000000000000
-0.182409671470528 -0.268356111223780 3.609000000000000
-0.182864558431801 -0.259109902818963 3.618000000000000
-0.183016187418892 -0.249401106098891 3.621000000000000
-0.183572160371559 -0.240204951683540 3.632000000000000
-0.184583020285500 -0.231519060747740 3.652000000000000
-0.185846595177925 -0.223026819335354 3.677000000000000
-0.187514514035927 -0.214860860652368 3.710000000000000
-0.187918858001503 -0.205134688642480 3.718000000000000
-0.193225872549689 -0.148064425601421 3.823000000000000
-0.193579673519568 -0.137839105912532 3.830000000000000
-0.193326958541083 -0.127176433187352 3.825000000000000
-0.195045420394782 -0.117730984471862 3.859000000000000
-0.197218769209753 -0.108349084371557 3.902000000000000
-0.197673656171027 -0.097880576399204 3.911000000000000
-0.197471484188239 -0.087073014585377 3.907000000000000
-0.196410081278601 -0.075955098304676 3.886000000000000
-0.196814425244177 -0.065439638681670 3.894000000000000
-0.198633973089270 -0.055274140416459 3.930000000000000
-0.201919267809576 -0.045239718706665 3.995000000000000
-0.201919267809576 -0.034291093656649 3.995000000000000
-0.201413837852606 -0.023284039398607 3.985000000000000
-0.202222525783758 -0.012412457589494 4.001000000000000
-0.202171982788061 -0.001447027290716 4.000000000000000
-0.205457277508367 0.009669924305125 4.065000000000000
-0.205811078478246 0.020846225944542 4.072000000000000
-0.200099719964483 0.031117697034142 3.959000000000000
-0.202171982788061 0.097213924348975 4.000000000000000
-0.201767638822485 0.107959899804322 3.992000000000000
-0.200807321904242 0.118334394852091 3.973000000000000
-0.199038317054846 0.171253991657668 3.938000000000000
-0.202222525783758 0.184958776165706 4.001000000000000
-0.200605149921453 0.194356845699753 3.969000000000000
-0.200857864899939 0.205492762122964 3.974000000000000
-0.200908407895636 0.216438284834167 3.975000000000000
-0.200908407895636 0.227332098244383 3.975000000000000
-0.200251348951574 0.237446808044156 3.962000000000000
-0.200251348951574 0.248304993888502 3.962000000000000
-0.200908407895636 0.260013538475031 3.975000000000000
-0.200857864899939 0.270839199092319 3.974000000000000
-0.200554606925756 0.281304911671042 3.968000000000000
-0.200099719964483 0.291516835395164 3.959000000000000
-0.200554606925756 0.303054170343614 3.968000000000000
-0.200756778908545 0.314245260163448 3.972000000000000
-0.200756778908545 0.325130851827694 3.972000000000000
-0.200402977938665 0.335424269497871 3.965000000000000
-0.199796461990301 0.345242634685902 3.953000000000000
-0.198987774059149 0.354634916110785 3.937000000000000
-0.199038317054846 0.365517405436218 3.938000000000000
-0.198431801106482 0.375163113958880 3.926000000000000
-0.198128543132300 0.385332843682684 3.920000000000000
-0.197926371149512 0.395671765976223 3.916000000000000
-0.198330715115088 0.407234127919405 3.924000000000000
-0.197825285158118 0.416922962240261 3.914000000000000
-0.197471484188239 0.426884769489649 3.907000000000000
-0.197926371149512 0.438600242267448 3.916000000000000
-0.195955194317328 0.508608814807913 3.877000000000000
-0.195298135373267 0.517493003294179 3.864000000000000
-0.195449764360358 0.528492614131537 3.867000000000000
-0.195449764360358 0.539090444686834 3.867000000000000
-0.195348678368964 0.549403978228817 3.865000000000000
-0.194843248411994 0.558547436733665 3.855000000000000
-0.194186189467933 0.567193194586802 3.842000000000000
-0.193832388498053 0.576669918823961 3.835000000000000
-0.194135646472236 0.588098715763279 3.841000000000000
-0.194641076429206 0.600183805352905 3.851000000000000
-0.195095963390479 0.612165114583733 3.860000000000000
-0.194438904446418 0.620646437517471 3.847000000000000
-0.193933474489447 0.629548724807200 3.837000000000000
-0.193478587528174 0.638563014201696 3.828000000000000
-0.193579673519568 0.649393070712496 3.830000000000000
-0.193933474489447 0.661095564093991 3.837000000000000
-0.193478587528174 0.670035857774757 3.828000000000000
-0.192821528584113 0.678215716689596 3.815000000000000
-0.193023700566901 0.689393103599480 3.819000000000000
-0.193579673519568 0.701875215820832 3.830000000000000
-0.193377501536780 0.711627653568512 3.826000000000000
-0.193478587528174 0.722490597063192 3.828000000000000
-0.193832388498053 0.734321897798216 3.835000000000000
-0.193680759510962 0.744249371036433 3.832000000000000
-0.192619356601325 0.750615118146490 3.811000000000000
-0.192316098627143 0.759861271739667 3.805000000000000
-0.193124786558295 0.804943538529842 3.821000000000000
-0.193428044532477 0.816695724143979 3.827000000000000
-0.192669899597022 0.823941768113877 3.812000000000000
-0.192619356601325 0.834169981857347 3.811000000000000
-0.192518270609931 0.844171089052471 3.809000000000000
-0.192417184618537 0.854161233919635 3.807000000000000
-0.191810668670173 0.861869350975373 3.795000000000000
-0.191406324704597 0.870431082584698 3.787000000000000
-0.191659039683082 0.881972605142428 3.792000000000000
-0.191911754661567 0.893541533520058 3.797000000000000
-0.191709582678779 0.902995247830829 3.793000000000000
-0.191254695717506 0.911222990194198 3.784000000000000
-0.191355781708900 0.922080452524898 3.786000000000000
-0.191810668670173 0.934672911539494 3.795000000000000
-0.192265555631446 0.947314701029911 3.804000000000000
-0.192215012635749 0.957488103133581 3.803000000000000
-0.192467727614234 0.969183098282751 3.808000000000000
-0.192164469640052 0.978075716799219 3.802000000000000
-0.192113926644355 0.988235415992940 3.801000000000000
-0.191911754661567 0.997601431680031 3.797000000000000
-0.192316098627143 1.010131219065681 3.805000000000000
-0.192720442592719 1.022704855763170 3.813000000000000
-0.193175329553992 1.035593297632685 3.822000000000000
-0.192770985588416 1.043878230461021 3.814000000000000
-0.193023700566901 1.055712995291680 3.819000000000000
-0.193023700566901 1.066179277911457 3.819000000000000
-0.192417184618537 1.073262542273477 3.807000000000000
-0.191355781708900 1.108845633978832 3.786000000000000
-0.192366641622840 1.125133899354867 3.806000000000000
-0.192518270609931 1.136459639449033 3.809000000000000
-0.192265555631446 1.145393004938529 3.804000000000000
-0.191810668670173 1.153083593231859 3.795000000000000
-0.191507410695991 1.161644601327538 3.789000000000000
-0.190799808756232 1.167698130374966 3.775000000000000
-0.189788948842292 1.171802535586457 3.755000000000000
-0.189890034833686 1.182723031302927 3.757000000000000
-0.189485690868110 1.190479031807194 3.749000000000000
-0.189334061881019 1.199792614679653 3.746000000000000
-0.188575916945564 1.205213431044216 3.731000000000000
-0.188323201967079 1.213809704948943 3.726000000000000
-0.187565057031624 1.219093492214006 3.711000000000000
-0.187514514035927 1.228932543314898 3.710000000000000
-0.187463971040230 1.238766113251810 3.709000000000000
-0.187666143023018 1.250277851164473 3.713000000000000
-0.187160713066047 1.257058927993949 3.703000000000000
-0.187312342053138 1.268233936078666 3.706000000000000
-0.187565057031624 1.280115290803155 3.711000000000000
-0.187666143023018 1.290980974879825 3.713000000000000
-0.187362885048835 1.299054159381286 3.707000000000000
-0.187362885048835 1.309213496818184 3.707000000000000
-0.187666143023018 1.321508317666340 3.713000000000000
-0.187615600027321 1.331325444111311 3.712000000000000
-0.187413428044532 1.340052904194735 3.708000000000000
-0.186857455091865 1.376605284938309 3.697000000000000
-0.188171572979988 1.396489763926267 3.723000000000000
-0.188019943992897 1.405559435001617 3.720000000000000
-0.188019943992897 1.415754400004385 3.720000000000000
-0.188171572979988 1.427099324172481 3.723000000000000
-0.188222115975685 1.437688571224985 3.724000000000000
-0.188272658971382 1.448283299441469 3.725000000000000
-0.188272658971382 1.458491967354187 3.725000000000000
-0.188525373949867 1.470672045515586 3.730000000000000
-0.188677002936958 1.482085484233432 3.733000000000000
-0.189131889898231 1.495913945725514 3.742000000000000
-0.189232975889625 1.506974211123474 3.744000000000000
-0.189536233863807 1.519666416360178 3.750000000000000
-0.190446007786353 1.537287328096995 3.768000000000000
-0.198886688067755 1.648557576887028 3.935000000000000
-0.198987774059149 1.660185142756916 3.937000000000000
-0.197117683218359 1.655270961341350 3.900000000000000
-0.197168226214056 1.666386400135933 3.901000000000000
-0.171975957926371 -0.257605948159151 3.597000000000000
-0.173075609589509 -0.249332229792319 3.620000000000000
-0.173744962775767 -0.240337223132705 3.634000000000000
-0.174127450310771 -0.230885109321816 3.642000000000000
-0.175083669148282 -0.222117000926317 3.662000000000000
-0.176183320811420 -0.213413011187056 3.685000000000000
-0.177139539648931 -0.204417434486388 3.705000000000000
-0.182876852673998 -0.137659159299069 3.825000000000000
-0.183641827744007 -0.127708413038593 3.841000000000000
-0.185458643535278 -0.118341147646114 3.879000000000000
-0.187371081210300 -0.108821133175841 3.919000000000000
-0.187132026500922 -0.097955657383402 3.914000000000000
-0.187036404617171 -0.087184446649090 3.912000000000000
-0.186988593675295 -0.076443744073491 3.911000000000000
-0.185458643535278 -0.065187559950231 3.879000000000000
-0.191339389385971 -0.056286796424089 4.002000000000000
-0.189713817362202 -0.023184709744961 3.968000000000000
-0.191482822211598 -0.012424866944744 4.005000000000000
-0.190574414315962 0.085949715801648 3.986000000000000
-0.189857250187829 0.096509123397445 3.971000000000000
-0.190956901850967 0.108013987930477 3.994000000000000
-0.191387200327847 0.119227934204108 4.003000000000000
-0.188901031350318 0.171819329872892 3.951000000000000
-0.189618195478451 0.183340791370455 3.966000000000000
-0.190383170548460 0.194993439046716 3.982000000000000
-0.190000683013455 0.205492762122964 3.974000000000000
-0.190000683013455 0.216383834951190 3.974000000000000
-0.189761628304078 0.226988955454580 3.969000000000000
-0.189666006420326 0.237746463278942 3.967000000000000
-0.189092275117820 0.247866292485872 3.955000000000000
-0.189905061129704 0.259817301842219 3.972000000000000
-0.190048493955331 0.270907351885246 3.975000000000000
-0.189666006420326 0.281234018296125 3.967000000000000
-0.189379140769073 0.291664103308979 3.961000000000000
-0.189426951710949 0.302595923110232 3.962000000000000
-0.189666006420326 0.313849684559013 3.967000000000000
-0.189235707943446 0.323984871987415 3.958000000000000
-0.188996653234069 0.334409114079466 3.953000000000000
-0.188518543815313 0.344369266017331 3.943000000000000
-0.188470732873438 0.355085303355020 3.942000000000000
-0.188470732873438 0.365888677559566 3.942000000000000
-0.187992623454682 0.375736465635842 3.932000000000000
-0.187514514035927 0.385529442072318 3.922000000000000
-0.187753568745304 0.396783203521100 3.927000000000000
-0.187801379687180 0.407649249354593 3.928000000000000
-0.187657946861553 0.418094692588918 3.925000000000000
-0.187657946861553 0.428851476899634 3.925000000000000
-0.188136056280309 0.440728282258020 3.935000000000000
-0.185697698244655 0.445660595364031 3.884000000000000
-0.185076156000273 0.497212904852474 3.871000000000000
-0.184693668465269 0.506772208306156 3.863000000000000
-0.184932723174647 0.518028710336927 3.868000000000000
-0.184837101290895 0.528355946788860 3.866000000000000
-0.184932723174647 0.539229852611500 3.868000000000000
-0.184550235639642 0.548693235695532 3.860000000000000
-0.184311180930264 0.558547436733665 3.855000000000000
-0.184502424697767 0.569702898987629 3.859000000000000
-0.184263369988389 0.579526953623872 3.854000000000000
-0.183307151150878 0.587026939920962 3.834000000000000
-0.184311180930264 0.600807211019332 3.855000000000000
-0.184454613755891 0.611847930586539 3.858000000000000
-0.183785260569633 0.620162439775711 3.844000000000000
-0.182972474557749 0.627907993181432 3.827000000000000
-0.182924663615873 0.638229386712562 3.826000000000000
-0.183594016802131 0.651088613978064 3.840000000000000
-0.184645857523393 0.665402936807660 3.862000000000000
-0.183928693395260 0.673361532094956 3.847000000000000
-0.181872822894611 0.676260179891802 3.804000000000000
-0.182207499487740 0.687948970363346 3.811000000000000
-0.182542176080869 0.699676128982751 3.818000000000000
-0.182064066662113 0.708279692835571 3.808000000000000
-0.182111877603989 0.718904567453944 3.809000000000000
-0.182350932313367 0.730300839166205 3.814000000000000
-0.182924663615873 0.743084053649633 3.826000000000000
-0.182159688545864 0.750418158000033 3.810000000000000
-0.181155658766478 0.756666060084520 3.789000000000000
-0.181633768185233 0.800308951288896 3.799000000000000
-0.182494365138993 0.814561687760013 3.817000000000000
-0.182589987022744 0.825454777656583 3.819000000000000
-0.182446554197118 0.835264405869230 3.816000000000000
-0.182350932313367 0.845279215974304 3.814000000000000
-0.182016255720238 0.854161233919635 3.807000000000000
-0.181490335359607 0.862096457523720 3.796000000000000
-0.180964414998975 0.869971388324024 3.785000000000000
-0.181107847824602 0.881042254293122 3.788000000000000
-0.180916604057100 0.890482265693943 3.784000000000000
-0.181346902533980 0.902995247830829 3.793000000000000
-0.180868793115224 0.910982180735901 3.783000000000000
-0.181251280650229 0.923298202726331 3.791000000000000
-0.181585957243358 0.935411783406324 3.798000000000000
-0.181777201010860 0.946816638621377 3.802000000000000
-0.181777201010860 0.957236331347325 3.802000000000000
-0.181633768185233 0.966892486968532 3.799000000000000
-0.181442524417731 0.976274946147564 3.795000000000000
-0.181394713475855 0.986415461267355 3.794000000000000
-0.181490335359607 0.997338697565815 3.796000000000000
-0.182207499487740 1.011724067242920 3.811000000000000
-0.182589987022744 1.024314147432348 3.819000000000000
-0.182924663615873 1.036677121073431 3.826000000000000
-0.182685608906495 1.045794105556256 3.821000000000000
-0.182733419848371 1.056542306364179 3.822000000000000
-0.182255310429615 1.064225034668362 3.812000000000000
-0.181299091592104 1.110602917075470 3.792000000000000
-0.182303121371491 1.127203247041542 3.813000000000000
-0.182542176080869 1.139144894569811 3.818000000000000
-0.182494365138993 1.149307334345522 3.817000000000000
-0.181920633836487 1.156122021672522 3.805000000000000
-0.181633768185233 1.164710435588101 3.799000000000000
-0.181012225940851 1.171100694463476 3.786000000000000
-0.180773171231473 1.179916214927402 3.781000000000000
-0.180534116522096 1.188704329571428 3.776000000000000
-0.179577897684584 1.192701852085309 3.756000000000000
-0.178908544498327 1.198511469335628 3.742000000000000
-0.177856703777064 1.201660134946257 3.720000000000000
-0.178000136602691 1.212832402448984 3.723000000000000
-0.177569838125811 1.220079016459935 3.714000000000000
-0.177665460009562 1.230920035298696 3.716000000000000
-0.177378594358309 1.239100102497766 3.710000000000000
-0.177378594358309 1.249267661680634 3.710000000000000
-0.177282972474558 1.258756280043630 3.708000000000000
-0.177235161532682 1.268576147070592 3.707000000000000
-0.177235161532682 1.278735484507490 3.707000000000000
-0.177330783416433 1.289590206256200 3.709000000000000
-0.177235161532682 1.299054159381286 3.707000000000000
-0.177378594358309 1.310273016777843 3.710000000000000
-0.177665460009562 1.322576059371968 3.716000000000000
-0.178095758486442 1.335987952401572 3.725000000000000
-0.178095758486442 1.346196620314290 3.725000000000000
-0.177617649067687 1.352763931748546 3.715000000000000
-0.171593470391367 1.316718788882007 3.589000000000000
-0.176709241172051 1.376232927544493 3.696000000000000
-0.177761081893313 1.394614274047236 3.718000000000000
-0.177808892835189 1.405181596443821 3.719000000000000
-0.178000136602691 1.416896137423743 3.723000000000000
-0.178143569428318 1.428249283337809 3.726000000000000
-0.178000136602691 1.437302510921219 3.723000000000000
-0.177808892835189 1.445950494126933 3.719000000000000
-0.178191380370193 1.459275050289679 3.727000000000000
-0.179147599207704 1.477374840361099 3.747000000000000
-0.179243221091456 1.488437846341049 3.749000000000000
-0.179530086742709 1.501110867503823 3.755000000000000
-0.178860733556451 1.505766699736356 3.741000000000000
-0.179051977323953 1.517640194471698 3.745000000000000
-0.188661976640940 1.653165997051134 3.946000000000000
-0.187753568745304 1.655968264060556 3.927000000000000
-0.187705757803429 1.666306101083626 3.926000000000000
