# This PCD file was generated using the MATLAB® pcwrite function
# from Computer Vision Toolbox®.
# .PCD v.7 - Point Cloud Data file format
VERSION .7
FIELDS x y z
SIZE 8 8 8
TYPE F F F
COUNT 1 1 1
WIDTH 867
HEIGHT 1
VIEWPOINT 0 0 0 1 0 0 0
POINTS 867
DATA ascii
-0.493447168909228 0.723273658074029 3.724000000000000
-0.492784645857523 0.732494784672473 3.719000000000000
-0.492519636636842 0.742287607636358 3.717000000000000
-0.491327095143774 0.750652379099225 3.708000000000000
-0.491989618195478 0.761840366580247 3.713000000000000
-0.490399562871389 0.769521077816085 3.701000000000000
-0.490002049040366 0.779031982591823 3.698000000000000
-0.489604535209344 0.788526443875621 3.695000000000000
-0.490532067481729 0.800165903871346 3.702000000000000
-0.490399562871389 0.810092653595917 3.701000000000000
-0.490002049040366 0.819570671387776 3.698000000000000
-0.488942012157640 0.827910415855911 3.690000000000000
-0.489207021378321 0.838477376495672 3.692000000000000
-0.490267058261048 0.850434382245414 3.700000000000000
-0.491062085923093 0.861970061882341 3.706000000000000
-0.491194590533434 0.872361987031566 3.707000000000000
-0.490134553650707 0.880616773458011 3.699000000000000
-0.490134553650707 0.890754186238990 3.699000000000000
-0.490002049040366 0.900648048979681 3.698000000000000
-0.490267058261048 0.911275302423223 3.700000000000000
-0.490002049040366 0.920917393377658 3.698000000000000
-0.489604535209344 0.930296750217876 3.695000000000000
-0.489472030599003 0.940168688302648 3.694000000000000
-0.490532067481729 0.952350421775568 3.702000000000000
-0.490532067481729 0.962496056302516 3.702000000000000
-0.491194590533434 0.973955361400547 3.707000000000000
-0.490134553650707 0.981990901267793 3.699000000000000
-0.488544498326617 1.019223308101709 3.687000000000000
-0.491724608974797 1.036028096446561 3.711000000000000
-0.493579673519568 1.050145250845469 3.725000000000000
-0.493712178129909 1.060638577528324 3.726000000000000
-0.493447168909228 1.070275187318779 3.724000000000000
-0.492387132026501 1.078159995176576 3.716000000000000
-0.491857113585138 1.087172475786958 3.712000000000000
-0.491459599754115 1.096458652839517 3.709000000000000
-0.491194590533434 1.106026748080222 3.707000000000000
-0.490797076702411 1.115282778730891 3.704000000000000
-0.490797076702411 1.125433894421819 3.704000000000000
-0.490929581312752 1.135891593538804 3.705000000000000
-0.491327095143774 1.146973421835861 3.708000000000000
-0.491592104364456 1.157759629034822 3.710000000000000
-0.491857113585138 1.168556798561742 3.712000000000000
-0.491592104364456 1.178094747400558 3.710000000000000
-0.491327095143774 1.187621733911413 3.708000000000000
-0.491194590533434 1.197460785012305 3.707000000000000
-0.490797076702411 1.206642819949244 3.704000000000000
-0.490267058261048 1.215479903312267 3.700000000000000
-0.490134553650707 1.225288808011269 3.699000000000000
-0.490532067481729 1.236428188530116 3.702000000000000
-0.490532067481729 1.246573823057064 3.702000000000000
-0.490267058261048 1.256040516764140 3.700000000000000
-0.490267058261048 1.266180670127108 3.700000000000000
-0.490399562871389 1.276665775063992 3.701000000000000
-0.490002049040366 1.285765592541232 3.698000000000000
-0.488411993716276 1.291695071885465 3.686000000000000
-0.490664572092070 1.358542679083330 3.703000000000000
-0.491724608974797 1.371647988686878 3.711000000000000
-0.492784645857523 1.384797147602264 3.719000000000000
-0.491724608974797 1.391988588216594 3.711000000000000
-0.490664572092070 1.399136179519083 3.703000000000000
-0.492254627416160 1.413851504305454 3.715000000000000
-0.493049655078205 1.426332684728929 3.721000000000000
-0.493182159688546 1.436916450617453 3.722000000000000
-0.492387132026501 1.444784091469665 3.716000000000000
-0.492652141247183 1.455751177079964 3.718000000000000
-0.493182159688546 1.467517789117697 3.722000000000000
-0.494242196571272 1.480894416338253 3.730000000000000
-0.494507205791954 1.491916313588354 3.732000000000000
-0.494507205791954 1.502144165575002 3.732000000000000
-0.493977187350591 1.510751040050865 3.728000000000000
-0.494639710402295 1.523007854507983 3.733000000000000
-0.494904719622977 1.534059898159973 3.735000000000000
-0.495434738064340 1.545949836387255 3.739000000000000
-0.495832251895362 1.557445492564801 3.742000000000000
-0.496362270336726 1.569376539521933 3.746000000000000
-0.496627279557407 1.580486135395712 3.748000000000000
-0.496627279557407 1.590757836694200 3.748000000000000
-0.496362270336726 1.600175199925456 3.746000000000000
-0.496892288778089 1.612161058522388 3.750000000000000
-0.496892288778089 1.622438240984855 3.750000000000000
-0.496362270336726 1.630973860328979 3.746000000000000
-0.496892288778089 1.684101335759662 3.750000000000000
-0.499807390205587 1.704318872195699 3.772000000000000
-0.500337408646950 1.716474646876011 3.776000000000000
-0.501662454750359 1.731396238825277 3.786000000000000
-0.502457482412404 1.744532418344360 3.792000000000000
-0.503120005464108 1.757238688247836 3.797000000000000
-0.503915033126153 1.770437901152689 3.803000000000000
-0.503915033126153 1.780860334460626 3.803000000000000
-0.504577556177857 1.793637859495842 3.808000000000000
-0.504842565398538 1.805021513568621 3.810000000000000
-0.504975070008879 1.815939630459924 3.811000000000000
-0.505902602281265 1.829738669063762 3.818000000000000
-0.506432620722628 1.842130133795213 3.822000000000000
-0.507492657605355 1.856482408204206 3.830000000000000
-0.508022676046718 1.868928684575456 3.834000000000000
-0.509082712929445 1.883357695280170 3.842000000000000
-0.508685199098422 1.892408182281589 3.839000000000000
-0.508552694488081 1.902433592957800 3.838000000000000
-0.508552694488081 1.912951946635387 3.838000000000000
-0.509347722150126 1.926477288797049 3.844000000000000
-0.509082712929445 1.936004275307904 3.842000000000000
-0.508552694488081 1.944507007668148 3.838000000000000
-0.508420189877741 1.954515974852420 3.837000000000000
-0.508817703708763 1.966567969173933 3.840000000000000
-0.508950208319104 1.977606671672796 3.841000000000000
-0.509347722150126 1.989686071814210 3.844000000000000
-0.508552694488081 1.997098776056083 3.838000000000000
-0.514780411174100 2.085438136842740 3.885000000000000
-0.517828017211939 2.108494554463586 3.908000000000000
-0.519153063315347 2.124627483652429 3.918000000000000
-0.520478109418756 2.140815224481071 3.928000000000000
-0.521538146301482 2.155962267667161 3.936000000000000
-0.523525715456595 2.175006626727252 3.951000000000000
-0.524320743118640 2.189154081000641 3.957000000000000
-0.525910798442729 2.206670280580784 3.969000000000000
-0.526705826104774 2.220899952313873 3.975000000000000
-0.528825899870228 2.240777086542098 3.991000000000000
-0.530813469025340 2.260177721260887 4.006000000000000
-0.532933542790793 2.280227512154481 4.022000000000000
-0.481715729799877 -0.072554123753720 3.712000000000000
-0.483792090704187 -0.062649967387074 3.728000000000000
-0.481845502356396 -0.052222107726797 3.713000000000000
-0.480418004234683 -0.041921761865350 3.702000000000000
-0.477563007991258 -0.031587290276963 3.680000000000000
-0.475097329417390 -0.021390933058544 3.661000000000000
-0.474059148965235 -0.011332843682685 3.653000000000000
-0.473020968513080 -0.001318603618665 3.645000000000000
-0.471723242947886 0.008647029483181 3.635000000000000
-0.469776654600096 0.018532253909440 3.620000000000000
-0.468738474147941 0.067986209391426 3.612000000000000
-0.470425517382692 0.078165509227540 3.625000000000000
-0.470685062495731 0.088148725903433 3.627000000000000
-0.469257564374018 0.097791332087282 3.616000000000000
-0.468349156478383 0.107492784047620 3.609000000000000
-0.467830066252305 0.117253443541270 3.605000000000000
-0.469127791817499 0.127485899705661 3.615000000000000
-0.470944607608770 0.137925193074001 3.629000000000000
-0.471982788060925 0.148196740899897 3.637000000000000
-0.471723242947886 0.158077262487462 3.635000000000000
-0.470944607608770 0.167761909199037 3.629000000000000
-0.469906427156615 0.177315731488739 3.621000000000000
-0.471333925278328 0.187808181185356 3.632000000000000
-0.476524827539103 0.199939970292091 3.672000000000000
-0.480158459121645 0.211604720378420 3.700000000000000
-0.482105047469435 0.222643839445745 3.715000000000000
-0.483402773034629 0.233451817828034 3.725000000000000
-0.484830271156342 0.244380020061060 3.736000000000000
-0.484051635817226 0.254209917618105 3.730000000000000
-0.485219588825900 0.295811436996761 3.739000000000000
-0.486387541834574 0.306795174383232 3.748000000000000
-0.487425722286729 0.317743645960656 3.756000000000000
-0.487944812512807 0.328386619382492 3.760000000000000
-0.488074585069326 0.338781285113707 3.761000000000000
-0.487166177173690 0.348438887762205 3.754000000000000
-0.492097534321426 0.424711981276344 3.792000000000000
-0.488593675295403 0.473279380409224 3.765000000000000
-0.489502083191039 0.484496790778490 3.772000000000000
-0.490150945973636 0.495490196938222 3.777000000000000
-0.483143227921590 0.498609330037327 3.723000000000000
-0.494044122669217 0.603759738658101 3.807000000000000
-0.493005942217062 0.612902473649304 3.799000000000000
-0.492876169660542 0.623149871466705 3.798000000000000
-0.491967761764907 0.632390905652724 3.791000000000000
-0.492097534321426 0.642950006303339 3.792000000000000
-0.492097534321426 0.653342293209386 3.792000000000000
-0.491318898982310 0.662684367172213 3.786000000000000
-0.489242538078000 0.670215793425892 3.770000000000000
-0.487425722286729 0.678020554364925 3.756000000000000
-0.481975274912916 0.721331462429361 3.714000000000000
-0.481845502356396 0.731313023793733 3.713000000000000
-0.481715729799877 0.741289103994124 3.712000000000000
-0.480807321904242 0.750045055167915 3.705000000000000
-0.481456184686838 0.761224820902967 3.710000000000000
-0.480807321904242 0.770352767713752 3.705000000000000
-0.480807321904242 0.780506623986670 3.705000000000000
-0.480288231678164 0.789806865706001 3.701000000000000
-0.480288231678164 0.799949759650959 3.701000000000000
-0.479898914008606 0.809435999188788 3.698000000000000
-0.480028686565125 0.819792296772142 3.699000000000000
-0.479379823782529 0.828807879721338 3.694000000000000
-0.479379823782529 0.838931589592366 3.694000000000000
-0.480547776791203 0.851123923636423 3.703000000000000
-0.481066867017280 0.862202649594668 3.707000000000000
-0.480807321904242 0.871891330442933 3.705000000000000
-0.479250051226009 0.879188360200172 3.693000000000000
-0.479379823782529 0.889550138947507 3.694000000000000
-0.479509596339048 0.899917398858822 3.695000000000000
-0.480028686565125 0.911029011800946 3.699000000000000
-0.479769141452087 0.920668362173391 3.697000000000000
-0.479769141452087 0.930800293790389 3.697000000000000
-0.480158459121645 0.941695762512127 3.700000000000000
-0.480547776791203 0.952607674725805 3.703000000000000
-0.480288231678164 0.962236062770290 3.701000000000000
-0.480547776791203 0.972904424943681 3.703000000000000
-0.479898914008606 0.981725426571587 3.698000000000000
-0.477563007991258 0.987032223763038 3.680000000000000
-0.480937094460761 1.034632208415779 3.706000000000000
-0.482624137695513 1.048453741716591 3.719000000000000
-0.482883682808551 1.059215283677642 3.721000000000000
-0.482883682808551 1.069412989262400 3.721000000000000
-0.481975274912916 1.077579715308343 3.714000000000000
-0.480937094460761 1.085415192690319 3.706000000000000
-0.480677549347722 1.094980547349035 3.704000000000000
-0.480677549347722 1.105131663039963 3.704000000000000
-0.480677549347722 1.115282778730891 3.704000000000000
-0.480807321904242 1.125737737265886 3.705000000000000
-0.481066867017280 1.136504760390917 3.707000000000000
-0.481715729799877 1.148210717868047 3.712000000000000
-0.481456184686838 1.157759629034822 3.710000000000000
-0.481326412130319 1.167612383045664 3.709000000000000
-0.480807321904242 1.176507018630476 3.705000000000000
-0.480677549347722 1.186340588567388 3.704000000000000
-0.480547776791203 1.196168677340320 3.703000000000000
-0.480158459121645 1.205339749949299 3.700000000000000
-0.479898914008606 1.214822887148315 3.698000000000000
-0.480288231678164 1.225951305339202 3.701000000000000
-0.480418004234683 1.236428188530116 3.702000000000000
-0.480158459121645 1.245900363401172 3.700000000000000
-0.479509596339048 1.254343164714459 3.695000000000000
-0.479509596339048 1.264469615167477 3.695000000000000
-0.480158459121645 1.276320823490076 3.700000000000000
-0.479769141452087 1.285417900385326 3.697000000000000
-0.477822553104296 1.290293340933881 3.682000000000000
-0.479379823782529 1.355240793014804 3.694000000000000
-0.483143227921590 1.376083390428791 3.723000000000000
-0.482753910252032 1.385169504996081 3.720000000000000
-0.482364592582474 1.394239176071431 3.717000000000000
-0.480028686565125 1.397624825287898 3.699000000000000
-0.481456184686838 1.411948608606524 3.710000000000000
-0.482364592582474 1.424799405841825 3.717000000000000
-0.482624137695513 1.435758269706154 3.719000000000000
-0.481845502356396 1.443617688812396 3.713000000000000
-0.482234820025955 1.454968094144472 3.716000000000000
-0.482883682808551 1.467123507067961 3.721000000000000
-0.484181408373745 1.481291438969979 3.731000000000000
-0.483662318147668 1.489917497519773 3.727000000000000
-0.483532545591148 1.499729142800765 3.726000000000000
-0.482883682808551 1.507914329406993 3.721000000000000
-0.483921863260706 1.521375914669239 3.729000000000000
-0.484311180930264 1.532827721534945 3.732000000000000
-0.484830271156342 1.544709438016257 3.736000000000000
-0.485219588825900 1.556196872447833 3.739000000000000
-0.485738679051977 1.568119697658995 3.743000000000000
-0.485998224165016 1.579221071786805 3.745000000000000
-0.485738679051977 1.588635694436070 3.743000000000000
-0.486387541834574 1.601029537992688 3.748000000000000
-0.486647086947613 1.612161058522388 3.750000000000000
-0.486387541834574 1.621572940589664 3.748000000000000
-0.485219588825900 1.627926124871877 3.739000000000000
-0.487555494843248 1.687244991586413 3.757000000000000
-0.489242538078000 1.703415203652648 3.770000000000000
-0.489372310634520 1.714201772608431 3.771000000000000
-0.490929581312752 1.730024292518759 3.783000000000000
-0.492097534321426 1.744532418344360 3.792000000000000
-0.492746397104023 1.757238688247836 3.797000000000000
-0.493005942217062 1.768575752426785 3.799000000000000
-0.492876169660542 1.778518945643297 3.798000000000000
-0.494044122669217 1.793166841150386 3.807000000000000
-0.494563212895294 1.805495272496067 3.811000000000000
-0.494822758008333 1.816892629478796 3.813000000000000
-0.494952530564852 1.827821708698059 3.814000000000000
-0.495990711017007 1.842130133795213 3.822000000000000
-0.497288436582201 1.857451850715018 3.832000000000000
-0.497937299364798 1.870391070087644 3.837000000000000
-0.498456389590875 1.882867492860784 3.841000000000000
-0.498326617034356 1.892901125282965 3.840000000000000
-0.498067071921317 1.902433592957800 3.838000000000000
-0.497677754251759 1.911456674139320 3.835000000000000
-0.498067071921317 1.923470300312975 3.838000000000000
-0.497937299364798 1.933484748661226 3.837000000000000
-0.497677754251759 1.942987069934171 3.835000000000000
-0.497158664025681 1.951459655892525 3.831000000000000
-0.497807526808278 1.964519460872711 3.836000000000000
-0.498196844477836 1.976576936358205 3.839000000000000
-0.498975479816952 1.990203680053496 3.845000000000000
-0.497937299364798 1.996578427234807 3.837000000000000
-0.503777064408169 2.083827759903093 3.882000000000000
-0.507280923434192 2.109034087358791 3.909000000000000
-0.508967966668944 2.126796577561211 3.922000000000000
-0.510135919677618 2.142450266658627 3.931000000000000
-0.510655009903695 2.155414513025986 3.935000000000000
-0.512861143364524 2.175557121950417 3.952000000000000
-0.513769551260160 2.190260552610952 3.959000000000000
-0.515197049381873 2.207226256967930 3.970000000000000
-0.515326821938392 2.218665084437331 3.971000000000000
-0.518441363294857 2.243022916746600 3.995000000000000
-0.518571135851376 2.254535739929731 3.996000000000000
-0.519998633973089 2.271723431427898 4.007000000000000
-0.471320265009221 -0.062347472909347 3.710000000000000
-0.471193224506523 -0.052165849059706 3.709000000000000
-0.469414657468752 -0.041842493271871 3.695000000000000
-0.467763130933679 -0.031604457282549 3.682000000000000
-0.465984563895909 -0.021431833504163 3.668000000000000
-0.465095280377023 -0.011357662393186 3.661000000000000
-0.463316713339253 -0.001319327132310 3.647000000000000
-0.461665186804180 0.008644650658014 3.634000000000000
-0.459124376750222 0.018501537466496 3.614000000000000
-0.457981012225941 0.067854453171675 3.605000000000000
-0.460267741274503 0.078122383429345 3.623000000000000
-0.460775903285295 0.088148725903433 3.627000000000000
-0.460140700771805 0.097953596465745 3.622000000000000
-0.458743255242128 0.107552353337755 3.611000000000000
-0.458616214739430 0.117416069676556 3.610000000000000
-0.459505498258316 0.127556431323756 3.617000000000000
-0.460902943787993 0.137887186682964 3.628000000000000
-0.461157024793388 0.147911512088707 3.630000000000000
-0.461411105798784 0.157946799822410 3.632000000000000
-0.461411105798784 0.167900593610059 3.632000000000000
-0.461411105798784 0.177854387397708 3.632000000000000
-0.463570794344649 0.188687239302138 3.649000000000000
-0.468525373949867 0.200811168419726 3.688000000000000
-0.471701386517314 0.212348196422992 3.713000000000000
-0.472082508025408 0.222703770492702 3.716000000000000
-0.473225872549689 0.233451817828034 3.725000000000000
-0.474115156068575 0.244118371217312 3.732000000000000
-0.474115156068575 0.254346223203960 3.732000000000000
-0.473988115565877 0.295178516029664 3.731000000000000
-0.474623318079366 0.305812905948707 3.736000000000000
-0.476147804111741 0.317066875681720 3.748000000000000
-0.477164128133324 0.328037271915064 3.756000000000000
-0.477418209138720 0.338511052767166 3.758000000000000
-0.476528925619835 0.348160433669694 3.751000000000000
-0.478688614165699 0.411697417823649 3.768000000000000
-0.480594221706168 0.475542070674128 3.783000000000000
-0.487073287343761 0.492460417774318 3.834000000000000
-0.472336589030804 0.497939696233892 3.718000000000000
-0.483389112765522 0.561730896773239 3.805000000000000
-0.475385561095554 0.583196000942760 3.742000000000000
-0.480340140700772 0.599636346694584 3.781000000000000
-0.480467181203470 0.610159819779328 3.782000000000000
-0.480086059695376 0.620032481377745 3.779000000000000
-0.480086059695376 0.630389140717923 3.779000000000000
-0.481229424219657 0.642271788997111 3.788000000000000
-0.481483505225053 0.652997703392292 3.790000000000000
-0.480340140700772 0.661809189719529 3.781000000000000
-0.478053411652210 0.668971360918205 3.763000000000000
-0.475893723106345 0.676215387819757 3.746000000000000
-0.471828427020012 0.731509983940190 3.714000000000000
-0.472082508025408 0.742087906907911 3.716000000000000
-0.471320265009221 0.751057261720099 3.710000000000000
-0.470939143501127 0.760609275225687 3.707000000000000
-0.470303940987638 0.769729000290502 3.702000000000000
-0.470303940987638 0.779874634817450 3.702000000000000
-0.470049859982242 0.789593462067605 3.700000000000000
-0.469668738474148 0.799085182769413 3.697000000000000
-0.469160576463356 0.808341575176904 3.693000000000000
-0.468906495457961 0.818019293697209 3.691000000000000
-0.469160576463356 0.828583513754981 3.693000000000000
-0.469160576463356 0.838704483044019 3.693000000000000
-0.470303940987638 0.850894076506087 3.702000000000000
-0.470558021993033 0.861504886457688 3.704000000000000
-0.470303940987638 0.871185345559983 3.702000000000000
-0.469287616966054 0.879426429076478 3.694000000000000
-0.469414657468752 0.889790948405803 3.695000000000000
-0.469414657468752 0.899917398858822 3.695000000000000
-0.469541697971450 0.910290139934116 3.696000000000000
-0.469287616966054 0.919921268560591 3.694000000000000
-0.469668738474148 0.930800293790389 3.697000000000000
-0.469795778976846 0.941186737775634 3.698000000000000
-0.469795778976846 0.951321409974622 3.698000000000000
-0.469287616966054 0.960416108044704 3.694000000000000
-0.469287616966054 0.970539817915733 3.694000000000000
-0.469287616966054 0.980663527786761 3.694000000000000
-0.466873847414794 0.985691147372056 3.675000000000000
-0.468017211939075 1.018393997029209 3.684000000000000
-0.470812102998429 1.034632208415779 3.706000000000000
-0.472082508025408 1.047607987152152 3.716000000000000
-0.472463629533502 1.058645966137369 3.719000000000000
-0.472082508025408 1.067975992501768 3.716000000000000
-0.471447305511919 1.076709295505994 3.711000000000000
-0.470812102998429 1.085415192690319 3.706000000000000
-0.470812102998429 1.095571789545228 3.706000000000000
-0.470558021993033 1.105131663039963 3.704000000000000
-0.470430981490335 1.114981676468815 3.703000000000000
-0.470685062495731 1.125737737265886 3.705000000000000
-0.470939143501127 1.136504760390917 3.707000000000000
-0.471447305511919 1.147901393860000 3.711000000000000
-0.471066184003825 1.157135499854749 3.708000000000000
-0.470939143501127 1.166982772701611 3.707000000000000
-0.470685062495731 1.176507018630476 3.705000000000000
-0.470430981490335 1.186020302231382 3.703000000000000
-0.470049859982242 1.195199596586331 3.700000000000000
-0.469160576463356 1.203059377449395 3.693000000000000
-0.469160576463356 1.213180346738433 3.693000000000000
-0.469668738474148 1.224626310683337 3.697000000000000
-0.469922819479544 1.235426220792248 3.699000000000000
-0.469922819479544 1.245563633573226 3.699000000000000
-0.469160576463356 1.253664223894586 3.693000000000000
-0.468906495457961 1.263100771199772 3.691000000000000
-0.468779454955263 1.272871307750914 3.690000000000000
-0.469541697971450 1.285070208229420 3.696000000000000
-0.466746806912096 1.287489879030711 3.674000000000000
-0.470685062495731 1.359276431543002 3.705000000000000
-0.471447305511919 1.371647988686878 3.711000000000000
-0.472717710538898 1.385541862389897 3.721000000000000
-0.473988115565877 1.399490547732716 3.731000000000000
-0.472209548528106 1.404425919328228 3.717000000000000
-0.472209548528106 1.414612662585027 3.717000000000000
-0.472844751041596 1.426716004450705 3.722000000000000
-0.472590670036200 1.436144330009921 3.720000000000000
-0.472209548528106 1.445172892355421 3.717000000000000
-0.472209548528106 1.455359635612218 3.717000000000000
-0.473098832046991 1.468306353217169 3.724000000000000
-0.473988115565877 1.481291438969979 3.731000000000000
-0.473098832046991 1.488718207878625 3.724000000000000
-0.472336589030804 1.496509112435116 3.718000000000000
-0.472336589030804 1.506698596273905 3.718000000000000
-0.473606994057783 1.520967929709553 3.728000000000000
-0.473988115565877 1.532416995993269 3.731000000000000
-0.473861075063179 1.542228641274261 3.730000000000000
-0.473861075063179 1.552451012096929 3.730000000000000
-0.474369237073970 1.564349172070181 3.734000000000000
-0.475004439587460 1.576690944568989 3.739000000000000
-0.475131480090158 1.587362409081192 3.740000000000000
-0.476020763609043 1.600602368959072 3.747000000000000
-0.476274844614439 1.611731148906782 3.749000000000000
-0.475766682603647 1.620274989996876 3.745000000000000
-0.473479953555085 1.622701435516846 3.727000000000000
-0.477164128133324 1.686795897896877 3.756000000000000
-0.478815654668397 1.702963369381121 3.769000000000000
-0.478688614165699 1.712838048047883 3.768000000000000
-0.479959019192678 1.727737715341230 3.778000000000000
-0.481356464722355 1.743152250291872 3.789000000000000
-0.482372788743938 1.757238688247836 3.797000000000000
-0.482626869749334 1.768575752426785 3.799000000000000
-0.482499829246636 1.778518945643297 3.798000000000000
-0.483516153268219 1.792695822804931 3.806000000000000
-0.484151355781709 1.805495272496067 3.811000000000000
-0.484532477289803 1.817369128988232 3.814000000000000
-0.484786558295199 1.828780188880911 3.816000000000000
-0.486311044327573 1.845022017835708 3.828000000000000
-0.487454408851854 1.859875456992047 3.837000000000000
-0.487708489857250 1.871365993762435 3.839000000000000
-0.487327368349157 1.880416480763855 3.836000000000000
-0.487073287343761 1.889943467274710 3.834000000000000
-0.486946246841063 1.899955175040972 3.833000000000000
-0.486438084830271 1.908466129147186 3.829000000000000
-0.486565125332969 1.919460982334209 3.830000000000000
-0.486819206338365 1.930965222014547 3.832000000000000
-0.487073287343761 1.942480424022845 3.834000000000000
-0.486565125332969 1.950950269399210 3.830000000000000
-0.487200327846459 1.964007333797405 3.835000000000000
-0.487708489857250 1.976576936358205 3.839000000000000
-0.488216651868042 1.989168463574924 3.843000000000000
-0.486819206338365 1.993976683128429 3.832000000000000
-0.493679393484052 2.085974929155956 3.886000000000000
-0.496474284543406 2.108494554463586 3.908000000000000
-0.498633973089270 2.128423397992798 3.925000000000000
-0.499650297110853 2.143540294776999 3.933000000000000
-0.500158459121645 2.156510022308337 3.937000000000000
-0.502191107164811 2.176107617173583 3.953000000000000
-0.503207431186394 2.191367024221264 3.961000000000000
-0.504223755207978 2.206670280580784 3.969000000000000
-0.505621200737655 2.223693537159551 3.980000000000000
-0.508289051294311 2.246391662053353 4.001000000000000
-0.509940577829383 2.264691306325811 4.014000000000000
-0.499396216105457 2.228636089079877 3.931000000000000
-0.458200942558568 -0.061944146939044 3.686000000000000
-0.458449559456321 -0.051870491057481 3.688000000000000
-0.457455091865310 -0.041672632000132 3.680000000000000
-0.457206474967557 -0.031570123271378 3.678000000000000
-0.456212007376545 -0.021443519345768 3.670000000000000
-0.456087698927669 -0.011382481103687 3.669000000000000
-0.454720305990028 -0.001323306457359 3.658000000000000
-0.452358445461376 0.008656544783850 3.639000000000000
-0.448877808892835 0.067967387074319 3.611000000000000
-0.450369510279353 0.078122383429345 3.623000000000000
-0.451488286319241 0.088270243308869 3.632000000000000
-0.450618127177105 0.098034728654977 3.625000000000000
-0.449623659586094 0.107731061208158 3.617000000000000
-0.449126425790588 0.117513645357728 3.613000000000000
-0.449872276483847 0.127626962941850 3.619000000000000
-0.450120893381600 0.137621141945704 3.621000000000000
-0.450120893381600 0.147544789331462 3.621000000000000
-0.449996584932723 0.157424949162204 3.620000000000000
-0.450991052523735 0.167715681062030 3.628000000000000
-0.452109828563623 0.178099230992694 3.637000000000000
-0.455590465132163 0.189514588117933 3.665000000000000
-0.460562803087221 0.201736816430337 3.705000000000000
-0.462303121371491 0.212691339212795 3.719000000000000
-0.461681579127109 0.222583908398787 3.714000000000000
-0.462054504473738 0.232950444796457 3.717000000000000
-0.462551738269244 0.243398836897003 3.721000000000000
-0.463919131206885 0.254346223203960 3.732000000000000
-0.463297588962503 0.264219608316022 3.727000000000000
-0.465162215695649 0.275538266746326 3.742000000000000
-0.464664981900143 0.285488026397286 3.738000000000000
-0.463670514309132 0.295099400908777 3.730000000000000
-0.464416365002391 0.305812905948707 3.736000000000000
-0.465162215695649 0.316559297972517 3.742000000000000
-0.465908066388908 0.327338576980207 3.748000000000000
-0.466032374837784 0.337700355727542 3.749000000000000
-0.465659449491155 0.347696343515509 3.746000000000000
-0.471253329690595 0.414210432847519 3.791000000000000
-0.469264394508572 0.495227824580828 3.775000000000000
-0.468394235366437 0.504636034268237 3.768000000000000
-0.465410832593402 0.562986225834918 3.744000000000000
-0.468767160713066 0.587715692024358 3.771000000000000
-0.470134553650707 0.599794938693181 3.782000000000000
-0.470258862099583 0.610321152359915 3.783000000000000
-0.469637319855201 0.619868408215169 3.778000000000000
-0.469513011406325 0.630055513228789 3.777000000000000
-0.469637319855201 0.640576245731543 3.778000000000000
-0.469513011406325 0.650757869581184 3.777000000000000
-0.467897001570931 0.658833586380404 3.764000000000000
-0.464789290349020 0.664704735177562 3.739000000000000
-0.463421897411379 0.734267425990583 3.728000000000000
-0.462178812922615 0.742487308364804 3.718000000000000
-0.459816952393962 0.748830407305295 3.699000000000000
-0.459195410149580 0.757941910624140 3.694000000000000
-0.459071101700704 0.767857698020752 3.693000000000000
-0.459444027047333 0.778610656479010 3.696000000000000
-0.459071101700704 0.788099636598828 3.693000000000000
-0.458698176354074 0.797572173226706 3.690000000000000
-0.458076634109692 0.806590496757891 3.685000000000000
-0.458076634109692 0.816689541391010 3.685000000000000
-0.458822484802951 0.828134781822268 3.691000000000000
-0.458698176354074 0.838023163398979 3.690000000000000
-0.459568335496209 0.849744840854404 3.697000000000000
-0.459195410149580 0.859179009334422 3.694000000000000
-0.459319718598456 0.869538047499767 3.695000000000000
-0.458946793251827 0.878950291323865 3.692000000000000
-0.458822484802951 0.888827710572617 3.691000000000000
-0.459071101700704 0.899430298778249 3.693000000000000
-0.459071101700704 0.909551268067287 3.693000000000000
-0.459444027047333 0.920419330969124 3.696000000000000
-0.459816952393962 0.931303837362902 3.699000000000000
-0.459692643945086 0.941186737775634 3.698000000000000
-0.459444027047333 0.950806904074149 3.696000000000000
-0.459071101700704 0.960156114512478 3.693000000000000
-0.459692643945086 0.971590754372598 3.698000000000000
-0.460065569291715 0.982521850660206 3.701000000000000
-0.457579400314186 0.987300439041235 3.681000000000000
-0.457579400314186 1.017564685956710 3.681000000000000
-0.460065569291715 1.033236320384997 3.701000000000000
-0.461557270678232 1.046762232587712 3.713000000000000
-0.462178812922615 1.058361307367232 3.718000000000000
-0.461432962229356 1.066826395093262 3.712000000000000
-0.460935728433850 1.075838875703644 3.708000000000000
-0.461060036882727 1.086293834238639 3.709000000000000
-0.461557270678232 1.097641137231902 3.713000000000000
-0.461432962229356 1.107518556480654 3.712000000000000
-0.460811419984974 1.116186085517120 3.707000000000000
-0.460562803087221 1.125737737265886 3.705000000000000
-0.460438494638344 1.135585010112748 3.704000000000000
-0.460562803087221 1.146045449811722 3.705000000000000
-0.460811419984974 1.156823435264713 3.707000000000000
-0.460935728433850 1.167297577873637 3.708000000000000
-0.460811419984974 1.177142110138509 3.707000000000000
-0.460189877740592 1.185700015895375 3.702000000000000
-0.459444027047333 1.193907488914346 3.696000000000000
-0.459071101700704 1.203059377449395 3.693000000000000
-0.459195410149580 1.213508854820409 3.694000000000000
-0.459816952393962 1.225288808011269 3.699000000000000
-0.459692643945086 1.235092231546291 3.698000000000000
-0.459568335496209 1.244890173917333 3.697000000000000
-0.458946793251827 1.253324753484650 3.692000000000000
-0.458449559456321 1.262074138223993 3.688000000000000
-0.458325251007445 1.271836453029165 3.687000000000000
-0.458449559456321 1.282288670982170 3.688000000000000
-0.457206474967557 1.288891609982296 3.678000000000000
-0.462303121371491 1.364412698760709 3.719000000000000
-0.460562803087221 1.369430287815921 3.705000000000000
-0.463546205860255 1.388520721540426 3.729000000000000
-0.465908066388908 1.405867213321421 3.748000000000000
-0.465410832593402 1.414627560388724 3.744000000000000
-0.461805887575985 1.413851504305454 3.715000000000000
-0.461432962229356 1.422882807232944 3.712000000000000
-0.461805887575985 1.434214028491090 3.715000000000000
-0.461930196024862 1.444784091469665 3.716000000000000
-0.461805887575985 1.454576552676726 3.715000000000000
-0.461805887575985 1.464757814769544 3.715000000000000
-0.462551738269244 1.477321212652719 3.721000000000000
-0.462676046718120 1.487918681451193 3.722000000000000
-0.462303121371491 1.496911616230823 3.719000000000000
-0.462427429820368 1.507509085029297 3.720000000000000
-0.463546205860255 1.521375914669239 3.729000000000000
-0.463670514309132 1.532006270451593 3.730000000000000
-0.463794822758008 1.542642107397927 3.731000000000000
-0.463421897411379 1.551618598685617 3.728000000000000
-0.463794822758008 1.563092330207243 3.731000000000000
-0.464167748104638 1.574582505220808 3.734000000000000
-0.464292056553514 1.585240266823062 3.735000000000000
-0.465162215695649 1.598466523790992 3.742000000000000
-0.465037907246773 1.608291871981934 3.741000000000000
-0.464043439655761 1.615083187625724 3.733000000000000
-0.459568335496209 1.609639712129268 3.697000000000000
-0.466529608633290 1.685448616828270 3.753000000000000
-0.468394235366437 1.702511535109596 3.768000000000000
-0.468269926917560 1.712383473194367 3.767000000000000
-0.468891469161943 1.724993822728194 3.772000000000000
-0.470383170548460 1.740851970204393 3.784000000000000
-0.471874871934977 1.756775891648350 3.796000000000000
-0.472247797281606 1.768575752426785 3.799000000000000
-0.472496414179359 1.779923778933694 3.801000000000000
-0.473117956423742 1.792695822804931 3.806000000000000
-0.473863807117000 1.805969031423513 3.812000000000000
-0.474361040912506 1.818322128007103 3.816000000000000
-0.475106891605765 1.831655629429466 3.822000000000000
-0.476971518338911 1.849359843896450 3.837000000000000
-0.477220135236664 1.860844899502858 3.839000000000000
-0.477344443685541 1.871853455599831 3.840000000000000
-0.476474284543406 1.878945873505698 3.833000000000000
-0.476722901441158 1.890436410276086 3.835000000000000
-0.476349976094529 1.899459491457606 3.832000000000000
-0.476225667645653 1.909462977477897 3.831000000000000
-0.475479816952394 1.916955158597480 3.825000000000000
-0.475728433850147 1.928445695367868 3.827000000000000
-0.476101359196776 1.940453840377542 3.830000000000000
-0.476225667645653 1.951459655892525 3.831000000000000
-0.476722901441158 1.964007333797405 3.835000000000000
-0.477344443685541 1.977091804015500 3.840000000000000
-0.478214602827676 1.991238896532068 3.847000000000000
-0.477095826787788 1.997098776056083 3.838000000000000
-0.483559866129363 2.088122098408818 3.890000000000000
-0.486418960453521 2.111192218939614 3.913000000000000
-0.488034970288915 2.128965671469993 3.926000000000000
-0.489278054777679 2.145175336954555 3.936000000000000
-0.490272522368691 2.160344304796566 3.944000000000000
-0.491515606857455 2.176658112396749 3.954000000000000
-0.492634382897343 2.192473495831575 3.963000000000000
-0.494126084283860 2.210006138903657 3.975000000000000
-0.494499009630490 2.222576103221280 3.978000000000000
-0.498103954647907 2.249760407360106 4.007000000000000
-0.499347039136671 2.266383900725158 4.017000000000000
-0.446063793456731 -0.061658457710079 3.669000000000000
-0.446550099036951 -0.051659521055891 3.673000000000000
-0.446306946246841 -0.041570715237088 3.671000000000000
-0.446550099036951 -0.031527205757415 3.673000000000000
-0.445577487876511 -0.021414304741755 3.665000000000000
-0.445577487876511 -0.011370071748437 3.665000000000000
-0.444604876716071 -0.001322944700537 3.657000000000000
-0.442781230790247 0.008663681259352 3.642000000000000
-0.440106550099037 0.068136787928284 3.620000000000000
-0.441687043234752 0.078338012420318 3.633000000000000
-0.442173348814972 0.088391760714305 3.637000000000000
-0.442051772419917 0.098332213348827 3.636000000000000
-0.441079161259477 0.108058692303898 3.628000000000000
-0.440106550099037 0.117741321947129 3.620000000000000
-0.439498668123762 0.127485899705661 3.615000000000000
-0.438647633358377 0.137127058862220 3.608000000000000
-0.438890786148487 0.147096572628163 3.610000000000000
-0.438769209753432 0.156946586057015 3.609000000000000
-0.440228126494092 0.167392084102980 3.621000000000000
-0.442051772419917 0.178050262273696 3.636000000000000
-0.445942217061676 0.189669716020894 3.668000000000000
-0.449954238098491 0.201519016898429 3.701000000000000
-0.452385765999590 0.212805720142729 3.721000000000000
-0.452021036814425 0.222823632586616 3.718000000000000
-0.452507342394645 0.233263802941193 3.722000000000000
-0.452264189604535 0.243333424686066 3.720000000000000
-0.452993647974865 0.253937306446397 3.726000000000000
-0.454574141110580 0.265070328815027 3.739000000000000
-0.453358377160030 0.274581025306534 3.729000000000000
-0.451777884024315 0.283807786541550 3.716000000000000
-0.452507342394645 0.294466479941680 3.722000000000000
-0.453723106345195 0.305485483137199 3.732000000000000
-0.454330988320470 0.316136316548182 3.737000000000000
-0.454209411925415 0.326290534577923 3.736000000000000
-0.454452564715525 0.336709503790225 3.738000000000000
-0.454209411925415 0.346768163207139 3.736000000000000
-0.461747148418824 0.456610185098908 3.798000000000000
-0.463084488764429 0.478810401056768 3.809000000000000
-0.456640939826515 0.544203416957625 3.756000000000000
-0.453358377160030 0.550511041804838 3.729000000000000
-0.458221432962229 0.566745482150589 3.769000000000000
-0.459801926097944 0.589430057607033 3.782000000000000
-0.460166655283109 0.600270714688971 3.785000000000000
-0.460409808073219 0.610966482682262 3.787000000000000
-0.459923502492999 0.620688774028053 3.783000000000000
-0.458950891332559 0.629721885739656 3.775000000000000
-0.458464585752339 0.639389365445646 3.771000000000000
-0.457735127382009 0.648690330678623 3.765000000000000
-0.456033057851240 0.656558125003426 3.751000000000000
-0.450562120073766 0.658838124784179 3.706000000000000
-0.448616897752886 0.736895687968297 3.690000000000000
-0.447036404617171 0.744376698475688 3.677000000000000
-0.446914828222116 0.754248636560460 3.676000000000000
-0.446914828222116 0.764323015955668 3.676000000000000
-0.447765862987501 0.775872036745723 3.683000000000000
-0.447644286592446 0.785752196576465 3.682000000000000
-0.447522710197391 0.795626875243227 3.681000000000000
-0.447522710197391 0.805714957548385 3.681000000000000
-0.447522710197391 0.815803039853543 3.681000000000000
-0.448373744962776 0.827461683923198 3.688000000000000
-0.448009015777611 0.836887630657246 3.685000000000000
-0.448616897752886 0.848135910942048 3.690000000000000
-0.448495321357831 0.858016070772789 3.689000000000000
-0.448981626938051 0.869067390911134 3.693000000000000
-0.449224779728161 0.879664497952785 3.695000000000000
-0.448860050542996 0.889068520030914 3.692000000000000
-0.448495321357831 0.898456098617102 3.689000000000000
-0.448495321357831 0.908566105578181 3.689000000000000
-0.448738474147941 0.919174174947792 3.691000000000000
-0.448981626938051 0.929793206645363 3.693000000000000
-0.448738474147941 0.939405151197908 3.691000000000000
-0.448616897752886 0.949263386372730 3.690000000000000
-0.448981626938051 0.960156114512478 3.693000000000000
-0.449589508913326 0.971590754372598 3.698000000000000
-0.450197390888601 0.983052800052619 3.703000000000000
-0.448738474147941 0.989982591823200 3.691000000000000
-0.447157981012226 1.016735374884210 3.678000000000000
-0.450075814493546 1.033515497991153 3.702000000000000
-0.451170002049040 1.046198396211419 3.711000000000000
-0.451413154839150 1.056938013516550 3.713000000000000
-0.450926849258930 1.065964197036882 3.709000000000000
-0.450562120073766 1.075258595835412 3.706000000000000
-0.450805272863875 1.086000953722533 3.708000000000000
-0.451413154839150 1.097641137231902 3.713000000000000
-0.451413154839150 1.107816918160740 3.713000000000000
-0.451291578444095 1.117691596827502 3.712000000000000
-0.450562120073766 1.126041580109952 3.706000000000000
-0.450440543678711 1.135891593538804 3.705000000000000
-0.449954238098491 1.144808153779536 3.701000000000000
-0.450440543678711 1.156199306084640 3.705000000000000
-0.450926849258930 1.167612383045664 3.709000000000000
-0.450926849258930 1.177777201646542 3.709000000000000
-0.450075814493546 1.185700015895375 3.702000000000000
-0.449346356123216 1.193907488914346 3.696000000000000
-0.449467932518271 1.204362447449340 3.697000000000000
-0.449346356123216 1.214165870984362 3.696000000000000
-0.449589508913326 1.224957559347303 3.698000000000000
-0.449346356123216 1.234424253054379 3.696000000000000
-0.449467932518271 1.244890173917333 3.697000000000000
-0.448981626938051 1.253664223894586 3.693000000000000
-0.448860050542996 1.263442982191698 3.692000000000000
-0.448738474147941 1.273216259324830 3.691000000000000
-0.449103203333106 1.284374823917607 3.694000000000000
-0.448130592172666 1.291695071885465 3.686000000000000
-0.448616897752886 1.353773288095460 3.690000000000000
-0.449832661703436 1.367582203756790 3.700000000000000
-0.449711085308381 1.377349999725942 3.699000000000000
-0.455789905061130 1.406242311297227 3.749000000000000
-0.451291578444095 1.402536726539248 3.712000000000000
-0.451170002049040 1.412329187746310 3.711000000000000
-0.450683696468820 1.420966208624063 3.707000000000000
-0.450926849258930 1.431897666668494 3.709000000000000
-0.451413154839150 1.443617688812396 3.713000000000000
-0.451413154839150 1.453793469741234 3.713000000000000
-0.451291578444095 1.463574968620336 3.712000000000000
-0.451413154839150 1.474145031598910 3.713000000000000
-0.451899460419370 1.485919865382613 3.717000000000000
-0.451777884024315 1.495704104843705 3.716000000000000
-0.452021036814425 1.506698596273905 3.718000000000000
-0.452750495184755 1.519335989870809 3.724000000000000
-0.453236800764975 1.531184819368241 3.728000000000000
-0.452993647974865 1.540574776779597 3.726000000000000
-0.452872071579810 1.550369978568649 3.725000000000000
-0.453115224369920 1.561416541056659 3.727000000000000
-0.454087835530360 1.575004193090444 3.735000000000000
-0.454330988320470 1.586089123726314 3.737000000000000
-0.455303599480910 1.599748030891840 3.745000000000000
-0.454330988320470 1.606572233519510 3.737000000000000
-0.451291578444095 1.605997533476209 3.712000000000000
-0.456640939826515 1.686795897896877 3.756000000000000
-0.458099856567174 1.702511535109596 3.768000000000000
-0.457978280172119 1.712383473194367 3.767000000000000
-0.458586162147394 1.724993822728194 3.772000000000000
-0.460166655283109 1.741312026221889 3.785000000000000
-0.461503995628714 1.756775891648350 3.796000000000000
-0.461503995628714 1.767179140882358 3.796000000000000
-0.461868724813879 1.778987223406763 3.799000000000000
-0.462233453999044 1.790811749423107 3.802000000000000
-0.463084488764429 1.804547754641175 3.809000000000000
-0.464178676319924 1.819275127025975 3.818000000000000
-0.465759169455638 1.835968790252298 3.831000000000000
-0.467096509801243 1.851769747263529 3.842000000000000
-0.467218086196298 1.862783784524481 3.843000000000000
-0.466853357011133 1.871853455599831 3.840000000000000
-0.466002322245748 1.878945873505698 3.833000000000000
-0.465880745850693 1.888957581271959 3.832000000000000
-0.465516016665528 1.897972440707509 3.829000000000000
-0.465637593060583 1.908964553312541 3.830000000000000
-0.464908134690253 1.916453993850134 3.824000000000000
-0.465272863875418 1.928445695367868 3.827000000000000
-0.465880745850693 1.941467132200194 3.832000000000000
-0.466488627825968 1.954515974852420 3.837000000000000
-0.466367051430913 1.964519460872711 3.836000000000000
-0.466974933406188 1.977606671672796 3.841000000000000
-0.467218086196298 1.989168463574924 3.843000000000000
-0.466731780616078 1.997619124877359 3.839000000000000
-0.474269517109487 2.094026813854190 3.901000000000000
-0.475363704664982 2.109573620253997 3.910000000000000
-0.476214739430367 2.124085210175233 3.917000000000000
-0.477552079775972 2.140815224481071 3.928000000000000
-0.478524690936411 2.155962267667161 3.936000000000000
-0.479862031282016 2.172804645834590 3.947000000000000
-0.481199371627621 2.189707316805797 3.958000000000000
-0.483023017553446 2.208894186129366 3.973000000000000
-0.484360357899051 2.225928405036093 3.984000000000000
-0.485940851034765 2.244145831848851 3.997000000000000
-0.485819274639710 2.254535739929731 3.996000000000000
-0.467825968171573 2.244854732711038 3.848000000000000
-0.471473260023222 2.272984175879590 3.878000000000000
-0.433425312478656 -0.071283644754800 3.647000000000000
-0.434851444573458 -0.061490405222453 3.659000000000000
-0.435564510620859 -0.051547003721710 3.665000000000000
-0.435445666279626 -0.041491446643609 3.664000000000000
-0.436039887985793 -0.031492871746244 3.669000000000000
-0.435326821938392 -0.021402618900150 3.663000000000000
-0.435089133255925 -0.011357662393186 3.661000000000000
-0.433900689843590 -0.001320774159601 3.651000000000000
-0.432355713407554 0.008654165958683 3.638000000000000
-0.429028071853016 0.058055063773343 3.610000000000000
-0.431404958677686 0.068325011099357 3.630000000000000
-0.432474557748788 0.078467389814901 3.639000000000000
-0.433068779454955 0.088561885081916 3.644000000000000
-0.432593402090021 0.098440389601136 3.640000000000000
-0.432236869066321 0.108326754109503 3.637000000000000
-0.430929581312752 0.117936473309472 3.626000000000000
-0.429741137900417 0.127521165514709 3.616000000000000
-0.428909227511782 0.137165065253257 3.609000000000000
-0.428790383170549 0.147015078682109 3.608000000000000
-0.428671538829315 0.156859610946981 3.607000000000000
-0.429146916194249 0.166929802732908 3.611000000000000
-0.431048425653985 0.177609543802722 3.627000000000000
-0.433781845502356 0.188738948603125 3.650000000000000
-0.438416774810464 0.200865618302703 3.689000000000000
-0.440437128611434 0.211947863168222 3.706000000000000
-0.441150194658835 0.222464046304873 3.712000000000000
-0.441506727682535 0.232825101538563 3.715000000000000
-0.441150194658835 0.242810126998569 3.712000000000000
-0.441744416365002 0.253323931310053 3.717000000000000
-0.441863260706236 0.263581567941768 3.718000000000000
-0.442457482412404 0.274139221565091 3.723000000000000
-0.441863260706236 0.283960535619344 3.718000000000000
-0.442576326753637 0.294624710183455 3.724000000000000
-0.443527081483505 0.305485483137199 3.732000000000000
-0.443527081483505 0.315713335123847 3.732000000000000
-0.443170548459805 0.325679176509924 3.729000000000000
-0.442814015436104 0.335628574404060 3.726000000000000
-0.442814015436104 0.345839982898768 3.726000000000000
-0.448637388156547 0.464190733544175 3.775000000000000
-0.449825831568882 0.475793480703562 3.785000000000000
-0.453985383512055 0.490662179420422 3.820000000000000
-0.445666279625709 0.543334082425744 3.750000000000000
-0.450063520251349 0.579830730693970 3.787000000000000
-0.449588142886415 0.589585909023640 3.783000000000000
-0.450420053275050 0.601063674681955 3.790000000000000
-0.451133119322451 0.612418475907544 3.796000000000000
-0.449588142886415 0.620688774028053 3.783000000000000
-0.447686633426679 0.628387375783121 3.767000000000000
-0.445903968308176 0.636167833241067 3.752000000000000
-0.446379345673110 0.647139676501702 3.756000000000000
-0.445309746602008 0.655857983041279 3.747000000000000
-0.435564510620859 0.741947402750448 3.665000000000000
-0.436396421009494 0.753427908990753 3.672000000000000
-0.436752954033195 0.764115093481252 3.675000000000000
-0.437584864421829 0.775661373689317 3.682000000000000
-0.437703708763063 0.785965600214862 3.683000000000000
-0.437703708763063 0.796059163684000 3.683000000000000
-0.437347175739362 0.805496072746008 3.680000000000000
-0.437703708763063 0.816246290622276 3.683000000000000
-0.438060241786763 0.827012951990485 3.686000000000000
-0.437822553104296 0.836660524108900 3.684000000000000
-0.437822553104296 0.846756828160028 3.684000000000000
-0.437703708763063 0.856620544498830 3.683000000000000
-0.438297930469230 0.867890749439551 3.688000000000000
-0.438297930469230 0.877998015818639 3.688000000000000
-0.438297930469230 0.888105282197727 3.688000000000000
-0.438179086127997 0.897968998536529 3.687000000000000
-0.438654463492931 0.909058686822734 3.691000000000000
-0.438892152175398 0.919672237356325 3.693000000000000
-0.438773307834164 0.929541434859107 3.692000000000000
-0.438654463492931 0.939405151197908 3.691000000000000
-0.438892152175398 0.950035145223440 3.693000000000000
