# This PCD file was generated using the MATLAB® pcwrite function
# from Computer Vision Toolbox®.
# .PCD v.7 - Point Cloud Data file format
VERSION .7
FIELDS x y z
SIZE 8 8 8
TYPE F F F
COUNT 1 1 1
WIDTH 867
HEIGHT 1
VIEWPOINT 0 0 0 1 0 0 0
POINTS 867
DATA ascii
-0.126903900006830 1.037423984477344 3.716000000000000
-0.127108804043440 1.049299496281030 3.722000000000000
-0.126903900006830 1.057791989826959 3.716000000000000
-0.127757666826036 1.167433631325948 3.741000000000000
-0.127894269517109 1.178945369238611 3.745000000000000
-0.127825968171573 1.188573757283097 3.743000000000000
-0.127689365480500 1.197550610327609 3.739000000000000
-0.128816337681852 1.249469960480808 3.772000000000000
-0.130045761901509 1.344884002126692 3.808000000000000
-0.124547503585821 1.347992512730003 3.647000000000000
-0.124615804931357 1.358732130035134 3.649000000000000
-0.124547503585821 1.367982317765001 3.647000000000000
-0.124445051567516 1.376843704609111 3.644000000000000
-0.124445051567516 1.386830385380639 3.644000000000000
-0.124342599549211 1.395667106986840 3.641000000000000
-0.124240147530906 1.404487385101100 3.638000000000000
-0.124137695512602 1.413291219723420 3.635000000000000
-0.124240147530906 1.424427859660277 3.638000000000000
-0.124445051567516 1.436763789238283 3.644000000000000
-0.124547503585821 1.447941537904990 3.647000000000000
-0.124718256949662 1.459935256491068 3.652000000000000
-0.124684106276894 1.469541358122811 3.651000000000000
-0.124547503585821 1.477926245457485 3.647000000000000
-0.124308448876443 1.485065253257182 3.640000000000000
-0.125077522027184 0.216764984132030 3.981000000000000
-0.123946451745099 0.225616384295369 3.945000000000000
-0.123757940031419 0.236068393964142 3.939000000000000
-0.123506591079844 0.246362173391141 3.931000000000000
-0.123412335223004 0.256939164560986 3.928000000000000
-0.123349497985110 0.267567865031818 3.926000000000000
-0.122689706987228 0.341050465076764 3.905000000000000
-0.122909637319855 0.352382979889609 3.912000000000000
-0.123035311795642 0.363475408757804 3.916000000000000
-0.123223823509323 0.374780879507572 3.922000000000000
-0.123255242128270 0.385627741267135 3.923000000000000
-0.123160986271430 0.396075925083451 3.920000000000000
-0.122501195273547 0.404639618949480 3.899000000000000
-0.122375520797760 0.414899064365309 3.895000000000000
-0.122312683559866 0.425355108170771 3.893000000000000
-0.122469776654600 0.436584204381642 3.898000000000000
-0.121967078751451 0.445431109990517 3.882000000000000
-0.121809985656717 0.455482632931929 3.877000000000000
-0.121307287753569 0.464184287695335 3.861000000000000
-0.121401543610409 0.475134568056872 3.864000000000000
-0.120867427088314 0.483587191616011 3.847000000000000
-0.120804589850420 0.493873319338095 3.845000000000000
-0.120301891947271 0.502311878230461 3.829000000000000
-0.120301891947271 0.512805566670138 3.829000000000000
-0.120301891947271 0.523299255109815 3.829000000000000
-0.120113380233591 0.532956496001491 3.823000000000000
-0.119516426473602 0.540732919322747 3.804000000000000
-0.119265077522027 0.549998980503500 3.796000000000000
-0.119296496140974 0.560549859408144 3.797000000000000
-0.119045147189400 0.569752887203126 3.789000000000000
-0.117914076907315 0.574624962316998 3.753000000000000
-0.115903285294720 0.574935875862598 3.689000000000000
-0.114897889488423 0.579970938868578 3.657000000000000
-0.113358377160030 0.621640030036779 3.608000000000000
-0.113892493682126 0.634503653195792 3.625000000000000
-0.114081005395806 0.645504919344672 3.631000000000000
-0.114175261252647 0.655997522513881 3.634000000000000
-0.114238098490540 0.666323311938523 3.636000000000000
-0.114300935728434 0.676660063691125 3.638000000000000
-0.114269517109487 0.686441562570227 3.637000000000000
-0.114238098490540 0.696217580285349 3.636000000000000
-0.114269517109487 0.706376555965425 3.637000000000000
-0.114269517109487 0.716344052663023 3.637000000000000
-0.114458028823168 0.727509753731302 3.643000000000000
-0.114709377774742 0.739113224404334 3.651000000000000
-0.114897889488423 0.750350180604353 3.657000000000000
-0.114835052250529 0.759956643992918 3.655000000000000
-0.115840448056827 0.776714688971350 3.687000000000000
-0.116908681101018 0.794074938473934 3.721000000000000
-0.118479612048357 0.815079855078024 3.771000000000000
-0.119170821665187 0.830230055414568 3.793000000000000
-0.119045147189400 0.839738581365139 3.789000000000000
-0.118825216856772 0.848552084760720 3.782000000000000
-0.118699542380985 0.858008539653481 3.778000000000000
-0.118479612048357 0.866753528499312 3.771000000000000
-0.118165425858889 0.874762386060304 3.761000000000000
-0.118165425858889 0.885069714924661 3.761000000000000
-0.118228263096783 0.895853181541632 3.763000000000000
-0.118259681715730 0.906406801028266 3.764000000000000
-0.118196844477836 0.916235251558021 3.762000000000000
-0.118071170002049 0.925560158515262 3.758000000000000
-0.117694146574688 0.932870891182451 3.746000000000000
-0.116688750768390 0.975794500200062 3.714000000000000
-0.117097192814698 0.989424192761575 3.727000000000000
-0.117379960385220 1.002052279342041 3.736000000000000
-0.117505634861007 1.013374917097395 3.740000000000000
-0.117474216242060 1.023350997297786 3.739000000000000
-0.117411379004166 1.033045159310031 3.737000000000000
-0.117537053479954 1.044403424631255 3.741000000000000
-0.117662727955741 1.055783614608398 3.745000000000000
-0.117599890717847 1.065477776620643 3.743000000000000
-0.117160030052592 1.071712184079411 3.729000000000000
-0.117128611433645 1.081641674385972 3.728000000000000
-0.116940099719964 1.090101280948022 3.722000000000000
-0.117128611433645 1.102075453703348 3.728000000000000
-0.117474216242060 1.115574321842986 3.739000000000000
-0.117756983812581 1.128531278262252 3.748000000000000
-0.117474216242060 1.136068393964142 3.739000000000000
-0.117379960385220 1.145395679746551 3.736000000000000
-0.117631309336794 1.158109086125529 3.744000000000000
-0.118039751383102 1.172426664766530 3.757000000000000
-0.118165425858889 1.183982251991033 3.761000000000000
-0.118102588620996 1.193654489347358 3.759000000000000
-0.118008332764155 1.202995478039717 3.756000000000000
-0.117882658288368 1.211996996322139 3.752000000000000
-0.118071170002049 1.224234264948504 3.758000000000000
-0.118416774810464 1.238146960968631 3.769000000000000
-0.118982309951506 1.254438690440302 3.787000000000000
-0.119265077522027 1.267823177650006 3.796000000000000
-0.119516426473602 1.280920265507583 3.804000000000000
-0.119265077522027 1.288629676118020 3.796000000000000
-0.120239054709378 1.351594295204529 3.827000000000000
-0.119579263711495 1.354608310540826 3.806000000000000
-0.117505634861007 1.341367769659565 3.740000000000000
-0.116500239054709 1.340052904194735 3.708000000000000
-0.115997541151561 1.344388811848084 3.692000000000000
-0.115463424629465 1.348270144647917 3.675000000000000
-0.115180657058944 1.355015232154700 3.666000000000000
-0.115149238439997 1.364689848336192 3.665000000000000
-0.115149238439997 1.374734081329511 3.665000000000000
-0.115054982583157 1.383644798649441 3.662000000000000
-0.114960726726317 1.392539072477431 3.659000000000000
-0.114929308107370 1.402183542257033 3.658000000000000
-0.114677959155795 1.409120108746293 3.650000000000000
-0.114646540536849 1.418734432124006 3.649000000000000
-0.114772215012636 1.430300981676469 3.653000000000000
-0.114960726726317 1.442678019984324 3.659000000000000
-0.114897889488423 1.451911764222250 3.657000000000000
-0.114960726726317 1.462733598987081 3.659000000000000
-0.115054982583157 1.473968899875577 3.662000000000000
-0.114992145345263 1.483194422367534 3.660000000000000
-0.115086401202104 1.494448907329960 3.663000000000000
-0.115212075677891 1.506130561326003 3.667000000000000
-0.115494843248412 1.519901470596296 3.676000000000000
-0.115557680486306 1.530808263402816 3.678000000000000
-0.115997541151561 1.546753385989049 3.692000000000000
-0.116468820435763 1.563196932740637 3.707000000000000
-0.119202240284134 1.672668153889160 3.794000000000000
-0.119579263711495 1.688389272265858 3.806000000000000
-0.119610682330442 1.699266280427311 3.807000000000000
-0.119704938187282 1.711046957131817 3.810000000000000
-0.119704938187282 1.721488574513683 3.810000000000000
-0.119642100949389 1.731021042188519 3.808000000000000
-0.123757940031419 1.833750957833405 3.939000000000000
-0.123946451745099 1.847355776872777 3.945000000000000
-0.124009288982993 1.859109409514204 3.947000000000000
-0.123883614507206 1.868031450918917 3.943000000000000
-0.114373335154703 0.228018383823989 3.987000000000000
-0.113168499419439 0.236427980245885 3.945000000000000
-0.112852947203060 0.246550188277983 3.934000000000000
-0.112623454682057 0.256808340139112 3.926000000000000
-0.112709514377433 0.267772323410599 3.929000000000000
-0.112393962161055 0.342185844345905 3.918000000000000
-0.112480021856431 0.353193676929233 3.921000000000000
-0.112451335291305 0.363846680881152 3.920000000000000
-0.112680827812308 0.375354231184534 3.928000000000000
-0.112910320333311 0.386905630799757 3.936000000000000
-0.112996380028687 0.397995680842784 3.939000000000000
-0.112537394986681 0.407130347560608 3.923000000000000
-0.112307902465679 0.417029483181048 3.915000000000000
-0.112250529335428 0.427540338626311 3.913000000000000
-0.112307902465679 0.438488240162681 3.915000000000000
-0.112078409944676 0.448299677159442 3.907000000000000
-0.112164469640052 0.459359580800579 3.910000000000000
-0.111934977119049 0.469113465575550 3.902000000000000
-0.111734171163172 0.478946465471407 3.895000000000000
-0.111303872686292 0.487735457101670 3.880000000000000
-0.111103066730415 0.497469796045888 3.873000000000000
-0.110644081688409 0.505985091233974 3.857000000000000
-0.110443275732532 0.515618028644563 3.850000000000000
-0.110242469776655 0.525212597907291 3.843000000000000
-0.110156410081279 0.535326430720828 3.840000000000000
-0.109668738474148 0.543433740949228 3.823000000000000
-0.109525305648521 0.553186540453731 3.818000000000000
-0.109553992213647 0.563797712162155 3.819000000000000
-0.109381872822895 0.573361773266171 3.813000000000000
-0.108836828085513 0.580902506536288 3.794000000000000
-0.107201693873369 0.582416743859726 3.737000000000000
-0.105537873096100 0.583459962837708 3.679000000000000
-0.103558500102452 0.621984619853872 3.610000000000000
-0.104017485144457 0.634678688686329 3.626000000000000
-0.104160917970084 0.645504919344672 3.631000000000000
-0.104160917970084 0.655455972550331 3.631000000000000
-0.104218291100335 0.665773540229003 3.633000000000000
-0.104275664230585 0.676102070235635 3.635000000000000
-0.104361723925961 0.686630300970714 3.638000000000000
-0.104419097056212 0.696983496215256 3.640000000000000
-0.104476470186463 0.707347653787758 3.642000000000000
-0.104419097056212 0.716934933102394 3.640000000000000
-0.104505156751588 0.727509753731302 3.643000000000000
-0.104619903012089 0.738303459162588 3.647000000000000
-0.104792022402841 0.749529453034646 3.653000000000000
-0.104906768663343 0.760372488941752 3.657000000000000
-0.105738679051977 0.776504025914943 3.686000000000000
-0.107402499829247 0.798983222157057 3.744000000000000
-0.108808141520388 0.819835027926530 3.793000000000000
-0.109410559388020 0.834826636264477 3.814000000000000
-0.109467932518271 0.845722466743038 3.816000000000000
-0.109324499692644 0.855058697785061 3.811000000000000
-0.109037634041391 0.863231990265453 3.801000000000000
-0.108636022129636 0.870431082584698 3.787000000000000
-0.108263096783007 0.877786026320549 3.774000000000000
-0.108119663957380 0.886952341279194 3.769000000000000
-0.108320469913257 0.898948076933618 3.776000000000000
-0.108205723652756 0.908333276694639 3.772000000000000
-0.107947544566628 0.916478801598307 3.763000000000000
-0.107746738610751 0.925067577270709 3.756000000000000
-0.107259067003620 0.931127672752586 3.739000000000000
-0.106828768526740 0.978421841342227 3.724000000000000
-0.107115634177993 0.991282515635020 3.734000000000000
-0.107345126698996 1.003661571011220 3.742000000000000
-0.107459872959497 1.015000652258513 3.746000000000000
-0.107345126698996 1.024172086624315 3.742000000000000
-0.107402499829247 1.034980218479196 3.744000000000000
-0.107517246089748 1.046357667874350 3.748000000000000
-0.107718052045625 1.058602796489862 3.755000000000000
-0.107631992350249 1.068039705551871 3.752000000000000
-0.107517246089748 1.077172771769813 3.748000000000000
-0.107402499829247 1.086283913331835 3.744000000000000
-0.107173007308244 1.094201608173512 3.736000000000000
-0.107259067003620 1.105327285782409 3.739000000000000
-0.107631992350249 1.119453023684109 3.752000000000000
-0.107804111741001 1.131542300883015 3.758000000000000
-0.107689365480500 1.140626036625138 3.754000000000000
-0.107545932654873 1.149381264285283 3.749000000000000
-0.107603305785124 1.160274354181854 3.751000000000000
-0.107804111741001 1.172738729356566 3.758000000000000
-0.107861484871252 1.183667446819006 3.760000000000000
-0.108004917696879 1.195559763871456 3.765000000000000
-0.108148350522505 1.207479486743805 3.770000000000000
-0.108320469913257 1.219749642354050 3.776000000000000
-0.108492589304009 1.232052684948175 3.782000000000000
-0.108636022129636 1.244060106444204 3.787000000000000
-0.108951574346015 1.258082425743931 3.798000000000000
-0.109238439997268 1.271831048601481 3.808000000000000
-0.109439245953145 1.284624293614992 3.815000000000000
-0.110156410081279 1.356185548363050 3.840000000000000
-0.109611365343897 1.359947019068970 3.821000000000000
-0.107746738610751 1.347106241401424 3.756000000000000
-0.106541902875487 1.342221274589872 3.714000000000000
-0.106054231268356 1.346209490087315 3.697000000000000
-0.105709992486852 1.351938906946279 3.685000000000000
-0.105451813400724 1.358711400272962 3.676000000000000
-0.105337067140223 1.367296350092906 3.672000000000000
-0.105279694009972 1.376609571208542 3.670000000000000
-0.105136261184345 1.384778314322830 3.665000000000000
-0.105164947749471 1.395203126455934 3.666000000000000
-0.105078888054095 1.404100140865914 3.663000000000000
-0.104849395533092 1.411050410265124 3.655000000000000
-0.104820708967967 1.420678436552786 3.654000000000000
-0.104906768663343 1.431867147547453 3.657000000000000
-0.104992828358719 1.443072302034060 3.660000000000000
-0.104878082098217 1.451514741590524 3.656000000000000
-0.104935455228468 1.462333835773365 3.658000000000000
-0.105107574619220 1.474773907466990 3.664000000000000
-0.105222320879721 1.486436377389102 3.668000000000000
-0.105423126835599 1.499344726846193 3.675000000000000
-0.105595246226351 1.511880718909467 3.681000000000000
-0.105853425312479 1.525689996327620 3.690000000000000
-0.105882111877604 1.536218950576344 3.691000000000000
-0.106312410354484 1.552618648016093 3.706000000000000
-0.107000887917492 1.572895753742265 3.730000000000000
-0.107746738610751 1.594153264307208 3.756000000000000
-0.109152380301892 1.677517745268385 3.805000000000000
-0.109410559388020 1.691938172470306 3.814000000000000
-0.109467932518271 1.703283458395225 3.816000000000000
-0.109525305648521 1.714639706648104 3.818000000000000
-0.109668738474148 1.727362420043520 3.823000000000000
-0.109697425039273 1.738294239844773 3.824000000000000
-0.109898230995151 1.751975433423042 3.831000000000000
-0.110959633904788 1.779496675674046 3.868000000000000
-0.112738200942559 1.818790635979457 3.930000000000000
-0.113512738200943 1.842130627099971 3.957000000000000
-0.113656171026569 1.855316498851696 3.962000000000000
-0.113570111331193 1.864761629659674 3.959000000000000
-0.113484051635817 1.874190316975713 3.956000000000000
-0.113311932245065 1.882173062271504 3.950000000000000
-0.103065364387678 0.237986187466770 3.971000000000000
-0.101975274912916 0.246236830133247 3.929000000000000
-0.101975274912916 0.257004576771923 3.929000000000000
-0.101975274912916 0.267772323410599 3.929000000000000
-0.102156956492043 0.279036323673695 3.936000000000000
-0.101871456867700 0.342797202413905 3.925000000000000
-0.102053138446827 0.354184528866550 3.932000000000000
-0.102156956492043 0.365331769374544 3.936000000000000
-0.102312683559866 0.376692051764113 3.942000000000000
-0.102572228672905 0.388478417916829 3.952000000000000
-0.102624137695513 0.399511277494889 3.954000000000000
-0.102338638071170 0.409205954736548 3.943000000000000
-0.102286729048562 0.419799027641510 3.941000000000000
-0.102182911003347 0.430162615172958 3.937000000000000
-0.102182911003347 0.440952286467554 3.937000000000000
-0.102079092958131 0.451282987015122 3.933000000000000
-0.102312683559866 0.463119045400481 3.942000000000000
-0.102416501605082 0.474403315007975 3.946000000000000
-0.102364592582474 0.484971722675027 3.944000000000000
-0.102182911003347 0.494900642940535 3.937000000000000
-0.101819547845093 0.503892075881234 3.923000000000000
-0.101430230175534 0.512675586347517 3.908000000000000
-0.100989003483369 0.521109025832726 3.891000000000000
-0.100495867768595 0.529175950844921 3.872000000000000
-0.100158459121645 0.537975181289499 3.859000000000000
-0.099872959497302 0.546987453615650 3.848000000000000
-0.099665323406871 0.556374100403962 3.840000000000000
-0.099509596339048 0.566012157221708 3.834000000000000
-0.099094324158186 0.574113624529305 3.818000000000000
-0.098782870022539 0.582739836551690 3.806000000000000
-0.097796598592992 0.587248137774538 3.768000000000000
-0.096083600846937 0.587107578805435 3.702000000000000
-0.093591967761765 0.621295440219685 3.606000000000000
-0.094059148965235 0.634328617705256 3.624000000000000
-0.094240830544362 0.645504919344672 3.631000000000000
-0.094318694078273 0.655997522513881 3.634000000000000
-0.094344648589577 0.666140054702016 3.635000000000000
-0.094370603100881 0.676288068054132 3.636000000000000
-0.094474421146097 0.687007777771688 3.640000000000000
-0.094474421146097 0.696983496215256 3.640000000000000
-0.094500375657400 0.707153434223291 3.641000000000000
-0.094474421146097 0.716934933102394 3.640000000000000
-0.094552284680008 0.727509753731302 3.643000000000000
-0.094682057236528 0.738505900473024 3.648000000000000
-0.094785875281743 0.749324271142220 3.652000000000000
-0.094941602349566 0.760580411416168 3.658000000000000
-0.095512601598251 0.775240047576503 3.680000000000000
-0.097770644081688 0.803891505840180 3.767000000000000
-0.098990506112970 0.824374056554650 3.814000000000000
-0.099483641827744 0.838985447509633 3.833000000000000
-0.099665323406871 0.851041475967836 3.840000000000000
-0.099353869271225 0.858872919213124 3.828000000000000
-0.099016460624274 0.866411481942305 3.815000000000000
-0.098705006488628 0.874108636670083 3.803000000000000
-0.098471415886893 0.882437780567081 3.794000000000000
-0.098497370398197 0.893070876931425 3.795000000000000
-0.098341643330374 0.902042972325603 3.789000000000000
-0.098237825285158 0.911463799652494 3.785000000000000
-0.097900416638208 0.918670751960886 3.772000000000000
-0.097744689570385 0.927530483493475 3.766000000000000
-0.097614917013865 0.936606359246450 3.761000000000000
-0.096966054231268 0.981574650712825 3.736000000000000
-0.097147735810395 0.993671787900879 3.743000000000000
-0.097329417389523 1.005807293236792 3.750000000000000
-0.097407280923434 1.016897343279819 3.753000000000000
-0.097381326412130 1.026909051046080 3.752000000000000
-0.097459189946042 1.038021025745027 3.755000000000000
-0.097511098968650 1.048870266329758 3.757000000000000
-0.097614917013865 1.060294305618741 3.761000000000000
-0.097537053479954 1.069747658172689 3.758000000000000
-0.097563007991257 1.080334164643203 3.759000000000000
-0.097537053479954 1.090345872409465 3.758000000000000
-0.097381326412130 1.098887696431214 3.752000000000000
-0.097355371900826 1.108874738959565 3.751000000000000
-0.097692780547777 1.123033363845146 3.764000000000000
-0.097796598592992 1.134553323503779 3.768000000000000
-0.097874462126904 1.145791364974266 3.771000000000000
-0.097744689570385 1.154593182528242 3.766000000000000
-0.097822553104296 1.165842186326688 3.769000000000000
-0.097874462126904 1.176795569027038 3.771000000000000
-0.097978280172119 1.188389524399401 3.775000000000000
-0.098134007239943 1.200640495935717 3.781000000000000
-0.098159961751247 1.211322922775881 3.782000000000000
-0.098419506864285 1.224918073041991 3.792000000000000
-0.098497370398197 1.236287662447997 3.795000000000000
-0.098601188443412 1.248002203427920 3.799000000000000
-0.098627142954716 1.258744923071863 3.800000000000000
-0.098808824533843 1.271497059355525 3.807000000000000
-0.099016460624274 1.284624293614992 3.815000000000000
-0.099691277918175 1.356538721682937 3.841000000000000
-0.099405778293832 1.363150244185855 3.830000000000000
-0.097952325660816 1.353562022111015 3.774000000000000
-0.096576736561710 1.344751040050865 3.721000000000000
-0.095979782801721 1.346573625735161 3.698000000000000
-0.095668328666075 1.352305783176115 3.686000000000000
-0.095434738064340 1.359081017084788 3.677000000000000
-0.095356874530428 1.368041064880538 3.674000000000000
-0.095201147462605 1.375859375256929 3.668000000000000
-0.095071374906086 1.384022637207237 3.663000000000000
-0.095019465883478 1.393300230757003 3.661000000000000
-0.095071374906086 1.404100140865914 3.663000000000000
-0.094941602349566 1.412208591176422 3.658000000000000
-0.094837784304351 1.420678436552786 3.654000000000000
-0.094759920770439 1.429517898740977 3.651000000000000
-0.094785875281743 1.439918045636171 3.652000000000000
-0.094863738815655 1.451117718958798 3.655000000000000
-0.094967556860870 1.462733598987081 3.659000000000000
-0.095175192951301 1.475981418854108 3.667000000000000
-0.095227101973909 1.486841621766798 3.669000000000000
-0.095590465132163 1.502608606523681 3.683000000000000
-0.095746192199986 1.515166523242876 3.689000000000000
-0.095953828290417 1.528584259193282 3.697000000000000
-0.096057646335633 1.540381017632904 3.701000000000000
-0.096576736561710 1.558902857330783 3.721000000000000
-0.097485144457346 1.583859638352801 3.756000000000000
-0.098056143706031 1.603490690242980 3.778000000000000
-0.098990506112970 1.681485592760479 3.814000000000000
-0.099094324158186 1.693712622572529 3.818000000000000
-0.099068369646882 1.703729811502771 3.817000000000000
-0.099120278669490 1.715088800337639 3.819000000000000
-0.099431732805136 1.730977094215727 3.831000000000000
-0.099483641827744 1.742385413526417 3.833000000000000
-0.100028686565125 1.762493688439677 3.854000000000000
-0.101248548596407 1.794678524251410 3.901000000000000
-0.102857728297247 1.834062923762490 3.963000000000000
-0.102935591831159 1.846320461733254 3.966000000000000
-0.102857728297247 1.855784776615162 3.963000000000000
-0.102727955740728 1.864290611314219 3.958000000000000
-0.102598183184209 1.872769040193375 3.953000000000000
-0.102883682808551 1.888844055403605 3.964000000000000
-0.091960931630353 0.248179650630608 3.960000000000000
-0.091403592650775 0.257462462248483 3.936000000000000
-0.091426815108258 0.268317545754016 3.937000000000000
-0.091217812990916 0.343059213014476 3.928000000000000
-0.091519704938187 0.354995225906173 3.941000000000000
-0.091682262140564 0.366445585744589 3.948000000000000
-0.091844819342941 0.377934313730864 3.955000000000000
-0.092030599002800 0.389559709059816 3.963000000000000
-0.091984154087836 0.400218555932538 3.961000000000000
-0.091844819342941 0.410451319042112 3.955000000000000
-0.091728707055529 0.420757716108593 3.950000000000000
-0.091612594768117 0.431036707355174 3.945000000000000
-0.091705484598047 0.442296311724758 3.949000000000000
-0.091635817225599 0.452774641942963 3.946000000000000
-0.091844819342941 0.464646327894192 3.955000000000000
-0.092053821460283 0.476567344321240 3.964000000000000
-0.092239601120142 0.488414726791381 3.972000000000000
-0.092123488832730 0.498671793382043 3.967000000000000
-0.092077043917765 0.509286790942925 3.965000000000000
-0.091891264257906 0.519103709103665 3.957000000000000
-0.091519704938187 0.527805363867071 3.941000000000000
-0.091194590533434 0.536692654692150 3.927000000000000
-0.090985588416092 0.546200248844845 3.918000000000000
-0.090521139266444 0.554094878948493 3.898000000000000
-0.090079912574278 0.562024774861189 3.879000000000000
-0.089708353254559 0.570293417670176 3.863000000000000
-0.089058124445052 0.576669918823961 3.835000000000000
-0.088802677412745 0.585495831574793 3.824000000000000
-0.088129226145755 0.591456126022922 3.795000000000000
-0.086921658356670 0.593609850747905 3.743000000000000
-0.083995628713886 0.623190684213699 3.617000000000000
-0.084320743118639 0.635553866139013 3.631000000000000
-0.084436855406052 0.646393799707306 3.636000000000000
-0.084436855406052 0.656358555822914 3.636000000000000
-0.084436855406052 0.666323311938523 3.636000000000000
-0.084413632948569 0.676102070235635 3.635000000000000
-0.084529745235981 0.687007777771688 3.640000000000000
-0.084529745235981 0.696983496215256 3.640000000000000
-0.084552967693464 0.707153434223291 3.641000000000000
-0.084483300321016 0.716541012809480 3.638000000000000
-0.084552967693464 0.727110352274409 3.641000000000000
-0.084622635065911 0.737696135231278 3.644000000000000
-0.084808414725770 0.749324271142220 3.652000000000000
-0.085040639300594 0.761412101313835 3.662000000000000
-0.085992760057373 0.780085297873856 3.703000000000000
-0.089336793934841 0.831506815827409 3.847000000000000
-0.090056690116795 0.848835263616581 3.878000000000000
-0.090056690116795 0.859463240573768 3.878000000000000
-0.089987022744348 0.869418119631885 3.875000000000000
-0.089313571477358 0.873451784941050 3.846000000000000
-0.088918789700157 0.880084662058835 3.829000000000000
-0.088825899870227 0.889647999649205 3.825000000000000
-0.088663342667851 0.898483427700706 3.818000000000000
-0.088384673178062 0.906090143222815 3.806000000000000
-0.088106003688273 0.913631084777163 3.794000000000000
-0.087804111741001 0.920862702323465 3.781000000000000
-0.087804111741001 0.931224842827623 3.781000000000000
-0.087827334198484 0.941836014536047 3.782000000000000
-0.086944880814152 0.983676523626557 3.744000000000000
-0.087177105388976 0.996592009559150 3.754000000000000
-0.087293217676388 1.008221230740560 3.759000000000000
-0.087339662591353 1.019064990161310 3.761000000000000
-0.087362885048835 1.029646015467845 3.762000000000000
-0.087386107506318 1.040232521938359 3.763000000000000
-0.087362885048835 1.050266154360540 3.762000000000000
-0.087432552421283 1.061421978371327 3.765000000000000
-0.087455774878765 1.072024928333781 3.766000000000000
-0.087641554538624 1.084645154925100 3.774000000000000
-0.087757666826036 1.096438811025909 3.779000000000000
-0.087687999453589 1.105916828817768 3.776000000000000
-0.087618332081142 1.115378403117686 3.773000000000000
-0.087711221911072 1.126912065686269 3.777000000000000
-0.087757666826036 1.137865448386619 3.779000000000000
-0.087780889283519 1.148525950570863 3.780000000000000
-0.087734444368554 1.158272183640918 3.778000000000000
-0.087827334198484 1.169863398431291 3.782000000000000
-0.087804111741001 1.179916214927402 3.781000000000000
-0.087943446485896 1.192167186463717 3.787000000000000
-0.088082781230790 1.204451044983913 3.793000000000000
-0.088198893518202 1.216447504151982 3.798000000000000
-0.088431118093026 1.230086503729932 3.808000000000000
-0.088338228263097 1.239219569947874 3.804000000000000
-0.088361450720579 1.249973251919777 3.805000000000000
-0.088222115975685 1.258413674407897 3.799000000000000
-0.088361450720579 1.270829080863612 3.805000000000000
-0.088477563007991 1.282940644475261 3.810000000000000
-0.089290349019876 1.357951414962481 3.845000000000000
-0.089104569360016 1.365641641498989 3.837000000000000
-0.087618332081142 1.353203367627149 3.773000000000000
-0.086341096919609 1.343666854853296 3.718000000000000
-0.085830202854996 1.345845354439469 3.696000000000000
-0.085621200737655 1.352672659405951 3.687000000000000
-0.085388976162830 1.359081017084788 3.677000000000000
-0.085226418960454 1.366551635305273 3.670000000000000
-0.085017416843112 1.373233689426286 3.661000000000000
-0.084947749470665 1.382133444418256 3.658000000000000
-0.084924527013182 1.391777914197859 3.657000000000000
-0.084970971928147 1.402566861978810 3.659000000000000
-0.085017416843112 1.413366772087721 3.661000000000000
-0.084878082098217 1.421067237438542 3.655000000000000
-0.084854859640735 1.430692523144215 3.654000000000000
-0.084785192268288 1.439523763586435 3.651000000000000
-0.084994194385629 1.453102832117428 3.660000000000000
-0.085087084215559 1.464732415055661 3.664000000000000
-0.085226418960454 1.477188930241226 3.670000000000000
-0.085296086332901 1.488462599277582 3.673000000000000
-0.085597978280172 1.503832561402739 3.686000000000000
-0.085760535482549 1.516809425409580 3.693000000000000
-0.086015982514856 1.531478522058944 3.704000000000000
-0.086271429547162 1.546207911512089 3.715000000000000
-0.087037770644082 1.570214434097225 3.748000000000000
-0.087850556655966 1.595245210832972 3.783000000000000
-0.088152448603238 1.611130402372248 3.796000000000000
-0.088616897752886 1.682367336647610 3.816000000000000
-0.088709787582815 1.694599847623641 3.820000000000000
-0.088733010040298 1.705515223932954 3.821000000000000
-0.088686565125333 1.715088800337639 3.819000000000000
-0.088965234615122 1.730977094215727 3.831000000000000
-0.089174236732464 1.745567437501027 3.840000000000000
-0.089847687999454 1.769353419972265 3.869000000000000
-0.091287480363363 1.808480204776286 3.931000000000000
-0.092239601120142 1.838228093157863 3.972000000000000
-0.092332490950072 1.850975833548012 3.976000000000000
-0.092030599002800 1.855784776615162 3.963000000000000
-0.091682262140564 1.859580427859660 3.948000000000000
-0.091659039683082 1.869926486628700 3.947000000000000
-0.091960931630353 1.886938057365862 3.960000000000000
-0.093122054504474 1.921752766617518 4.010000000000000
-0.081674748992555 0.249809112983233 3.986000000000000
-0.081080527286388 0.258836118678162 3.957000000000000
-0.080937094460761 0.269203532062069 3.950000000000000
-0.080629738405847 0.343670571082475 3.935000000000000
-0.080998565671744 0.356076155292338 3.953000000000000
-0.081162488901031 0.367652220145470 3.961000000000000
-0.081305921726658 0.379176575697615 3.968000000000000
-0.081346902533980 0.390247803423535 3.970000000000000
-0.081326412130319 0.401026874146994 3.969000000000000
-0.081101017690049 0.410762660118503 3.958000000000000
-0.081039546479066 0.421290320812528 3.955000000000000
-0.081019056075405 0.432020061060167 3.954000000000000
-0.081162488901031 0.443640336981961 3.961000000000000
-0.081244450515675 0.454954752991345 3.965000000000000
-0.081346902533980 0.466408576925396 3.970000000000000
-0.081490335359607 0.478130254380820 3.977000000000000
-0.081490335359607 0.489029548955016 3.977000000000000
-0.081449354552285 0.499677433499778 3.975000000000000
-0.081428864148624 0.510442801313287 3.974000000000000
-0.081551806570589 0.522120991213694 3.980000000000000
-0.081510825763268 0.532760654012486 3.978000000000000
-0.081551806570589 0.543936023854026 3.980000000000000
-0.081633768185233 0.555401171872859 3.984000000000000
-0.081039546479066 0.573036345598351 3.955000000000000
-0.074154770848986 0.623535274030793 3.619000000000000
-0.074421146096578 0.635728901629550 3.632000000000000
-0.074523598114883 0.646571575779833 3.637000000000000
-0.074585069325866 0.657080622440981 3.640000000000000
-0.074564578922205 0.666873083648043 3.639000000000000
-0.074585069325866 0.677032059328119 3.640000000000000
-0.074626050133188 0.687385254572661 3.642000000000000
-0.074646540536849 0.697557933162686 3.643000000000000
-0.074667030940510 0.707736092916692 3.644000000000000
-0.074605559729527 0.717131893248850 3.641000000000000
-0.074626050133188 0.727310053002856 3.642000000000000
-0.074667030940510 0.737696135231278 3.644000000000000
-0.074851444573458 0.749529453034646 3.653000000000000
-0.075220271839355 0.763283403583585 3.671000000000000
-0.075957926371150 0.780927950099483 3.707000000000000
-0.080814152038795 0.874090515941965 3.944000000000000
-0.080404343965576 0.880412051983359 3.924000000000000
-0.079994535892357 0.886623964745153 3.904000000000000
-0.079810122259409 0.895254572661050 3.895000000000000
-0.079297862167885 0.900114446703902 3.870000000000000
-0.078929034901988 0.906484589707470 3.852000000000000
-0.078478246021447 0.911803796254172 3.830000000000000
-0.077965985929923 0.916279988818425 3.805000000000000
-0.077576668260365 0.922080452524898 3.786000000000000
-0.077576668260365 0.932456295939006 3.786000000000000
-0.077330783416433 0.939843764901915 3.774000000000000
-0.077248821801789 1.000839604698454 3.770000000000000
-0.077515197049382 1.014658397417275 3.783000000000000
-0.077515197049382 1.025026019085413 3.783000000000000
-0.077515197049382 1.035393640753550 3.783000000000000
-0.077330783416433 1.043273329204190 3.774000000000000
-0.077351273820094 1.053895463240574 3.775000000000000
-0.077412745031077 1.065086914817230 3.778000000000000
-0.077474216242060 1.076294809885827 3.781000000000000
-0.077617649067687 1.088668745854870 3.788000000000000
-0.077638139471348 1.099340210367074 3.789000000000000
-0.077679120278669 1.110310036559364 3.791000000000000
-0.077556177856704 1.118925856294843 3.785000000000000
-0.077556177856704 1.129298959126960 3.785000000000000
-0.077556177856704 1.139672061959077 3.785000000000000
-0.077699610682330 1.152172064699660 3.792000000000000
-0.077699610682330 1.162564351605707 3.792000000000000
-0.077761081893313 1.173884610535893 3.795000000000000
-0.077761081893313 1.184285119187911 3.795000000000000
-0.077863533911618 1.196259653700060 3.800000000000000
-0.078006966737245 1.208896685540141 3.807000000000000
-0.078006966737245 1.219330081176038 3.807000000000000
-0.078109418755549 1.231378611401917 3.812000000000000
-0.077986476333584 1.239871104947847 3.806000000000000
-0.078006966737245 1.250630268083730 3.807000000000000
-0.077781572296974 1.257419928415998 3.796000000000000
-0.077925005122601 1.270161102371699 3.803000000000000
-0.078047947544567 1.282603914647314 3.809000000000000
-0.079133938938597 1.363955361400547 3.862000000000000
-0.078908544498327 1.370624436125256 3.851000000000000
-0.077084898572502 1.349258168304621 3.762000000000000
-0.076019397582132 1.340775694326447 3.710000000000000
-0.075691551123557 1.345117083143776 3.694000000000000
-0.075568608701591 1.353039535635788 3.688000000000000
-0.075343214261321 1.359081017084788 3.677000000000000
-0.075199781435694 1.366551635305273 3.670000000000000
-0.074994877399085 1.372858591450480 3.660000000000000
-0.074953896591763 1.382133444418256 3.658000000000000
-0.074892425380780 1.391016755918287 3.655000000000000
-0.074953896591763 1.402183542257033 3.658000000000000
-0.075015367802746 1.413366772087721 3.661000000000000
-0.074912915784441 1.421456038324298 3.656000000000000
-0.074871934977119 1.430692523144215 3.654000000000000
-0.074871934977119 1.440706609735643 3.654000000000000
-0.075117819821050 1.455484967907785 3.666000000000000
-0.075240762243016 1.467930520765390 3.672000000000000
-0.075322723857660 1.479603953015462 3.676000000000000
-0.075404685472304 1.491299309921455 3.680000000000000
-0.075630079912574 1.505872486201170 3.691000000000000
-0.075814493545523 1.519684504201312 3.700000000000000
-0.076019397582132 1.533959318800940 3.710000000000000
-0.076449696059012 1.552867218802585 3.731000000000000
-0.077269312205450 1.579850221713083 3.771000000000000
-0.077843043507957 1.601992216747148 3.799000000000000
-0.077986476333584 1.615374686888507 3.806000000000000
-0.078088928351889 1.680162976929781 3.811000000000000
-0.078293832388498 1.695043460149197 3.821000000000000
-0.078396284406803 1.707746989470684 3.826000000000000
-0.078437265214125 1.719130643543463 3.828000000000000
-0.078662659654395 1.734591768387935 3.839000000000000
-0.078929034901988 1.751022335743218 3.852000000000000
-0.079646199030121 1.777585097811371 3.887000000000000
-0.080527286387542 1.808020148758790 3.930000000000000
-0.081367392937641 1.837765296558377 3.971000000000000
-0.081264940919336 1.846320461733254 3.966000000000000
-0.081101017690049 1.853443387797833 3.958000000000000
-0.080834642442456 1.858167372823293 3.945000000000000
-0.080978075268083 1.872295281265929 3.952000000000000
-0.081326412130319 1.891226552950785 3.969000000000000
-0.081510825763268 1.906417083691893 3.978000000000000
-0.070536165562462 0.270702893506465 3.972000000000000
-0.070074448466635 0.344631276617902 3.946000000000000
-0.070429615463425 0.357247162127349 3.966000000000000
-0.070500648862783 0.368487582423003 3.970000000000000
-0.070553923912301 0.379654368761750 3.973000000000000
-0.070536165562462 0.390444401813169 3.972000000000000
-0.070536165562462 0.401329993477415 3.972000000000000
-0.070358582064067 0.411177781553691 3.962000000000000
-0.070340823714227 0.421929446457250 3.961000000000000
-0.070411857113585 0.433221937810713 3.965000000000000
-0.070624957311659 0.445432370658233 3.977000000000000
-0.070713749060857 0.456905378666213 3.982000000000000
-0.070784782460214 0.468288309225347 3.986000000000000
-0.070802540810054 0.479332492888190 3.987000000000000
-0.070820299159893 0.490382157715012 3.988000000000000
-0.070802540810054 0.501185893676381 3.987000000000000
-0.070784782460214 0.511984148473770 3.986000000000000
-0.070891332559251 0.523695225358057 3.992000000000000
-0.070997882658288 0.535439189226224 3.998000000000000
-0.071406324704597 0.549539384903778 4.021000000000000
-0.071441841404276 0.560838080934867 4.023000000000000
-0.071388566354757 0.571436996760632 4.020000000000000
-0.071193224506523 0.580860356385282 4.009000000000000
-0.071299774605560 0.592733127606978 4.015000000000000
-0.071548391503313 0.616883552671245 4.029000000000000
-0.064391776517997 0.624741338390621 3.626000000000000
-0.064569360016392 0.636429043591697 3.636000000000000
-0.064622635065911 0.646927127924886 3.639000000000000
-0.064604876716071 0.656719589131948 3.638000000000000
-0.064640393415750 0.667056340884550 3.640000000000000
-0.064640393415750 0.677032059328119 3.640000000000000
-0.064658151765590 0.687196516172174 3.641000000000000
-0.064675910115429 0.697366454180210 3.642000000000000
-0.064746943514787 0.708124532045625 3.646000000000000
-0.064729185164948 0.717919733834677 3.645000000000000
-0.064729185164948 0.727909155188196 3.645000000000000
-0.064746943514787 0.738101017852151 3.646000000000000
-0.065013318762380 0.751170908174060 3.661000000000000
-0.065350727409330 0.765154705853335 3.680000000000000
-0.065794686155317 0.780506623986670 3.705000000000000
-0.067268629191995 0.922567552605471 3.788000000000000
-0.067215354142477 0.932210005316729 3.785000000000000
-0.067197595792637 0.942334076944580 3.784000000000000
-0.067392937640872 1.007476472103616 3.795000000000000
-0.067623796188785 1.021363779372187 3.808000000000000
-0.067588279489106 1.031258003869702 3.806000000000000
-0.067375179291032 1.038404301617491 3.794000000000000
-0.067339662591353 1.048249195639186 3.792000000000000
-0.067321904241514 1.058362304939077 3.791000000000000
-0.067410695990711 1.070161442203866 3.796000000000000
-0.067481729390069 1.081703326518419 3.800000000000000
-0.067410695990711 1.090967940671881 3.796000000000000
-0.067446212690390 1.101951469774121 3.798000000000000
-0.067428454340551 1.112067319656002 3.797000000000000
-0.067446212690390 1.122768930570096 3.798000000000000
-0.067410695990711 1.132580937607910 3.796000000000000
-0.067446212690390 1.143586391366070 3.798000000000000
-0.067552762789427 1.155818178828456 3.804000000000000
-0.067481729390069 1.165017019014158 3.800000000000000
-0.067463971040229 1.175121906568079 3.799000000000000
-0.067446212690390 1.185221312958020 3.798000000000000
-0.067623796188785 1.198778095076270 3.808000000000000
-0.067748104637661 1.211437051572272 3.815000000000000
-0.067783621337340 1.222532944536102 3.817000000000000
-0.067819138037019 1.233639799827891 3.819000000000000
-0.067783621337340 1.243454547447696 3.817000000000000
-0.067765862987501 1.253586840821517 3.816000000000000
-0.067730346287822 1.263382404367391 3.814000000000000
-0.067890171436377 1.276840887290825 3.823000000000000
-0.068263096783007 1.294389458625433 3.844000000000000
-0.068866880677549 1.369606134518726 3.878000000000000
-0.066345195000342 1.339933151724100 3.736000000000000
-0.065723652755959 1.337523138733741 3.701000000000000
-0.065546069257564 1.344024676200238 3.691000000000000
-0.065457277508367 1.352305783176115 3.686000000000000
-0.065279694009972 1.358711400272962 3.676000000000000
-0.065137627211256 1.365806920517641 3.668000000000000
-0.065031077112219 1.373608787402093 3.662000000000000
-0.065013318762380 1.383266960091645 3.661000000000000
-0.064977802062701 1.392539072477431 3.659000000000000
-0.064995560412540 1.402950181700586 3.660000000000000
-0.065084352161738 1.414911013302785 3.665000000000000
-0.065048835462059 1.424177644524591 3.663000000000000
-0.065013318762380 1.433433313418438 3.661000000000000
-0.065013318762380 1.443466584083796 3.661000000000000
-0.065119868861417 1.455881990539511 3.667000000000000
-0.065208660610614 1.467930520765390 3.672000000000000
-0.065315210709651 1.480408960606874 3.678000000000000
-0.065457277508367 1.493730776187631 3.686000000000000
-0.065670377706441 1.508728380918972 3.698000000000000
-0.065830202854996 1.522559582993045 3.707000000000000
-0.066025544703231 1.537267047790269 3.718000000000000
-0.066505020148897 1.558694112681769 3.745000000000000
-0.067250870842156 1.586553378315419 3.787000000000000
-0.067659312888464 1.606630783313144 3.810000000000000
-0.067748104637661 1.619194542953141 3.815000000000000
-0.067659312888464 1.679722104986215 3.810000000000000
-0.067907929786217 1.696374297725865 3.824000000000000
-0.068014479885254 1.709532401900868 3.830000000000000
-0.068049996584933 1.720927018301607 3.832000000000000
-0.068263096783007 1.736850939745564 3.844000000000000
-0.068600505429957 1.756022659131893 3.863000000000000
-0.069186530974660 1.781700936730924 3.896000000000000
-0.070038931766956 1.814460933003732 3.944000000000000
-0.070411857113585 1.834988516961462 3.965000000000000
-0.070340823714227 1.843992775825875 3.961000000000000
-0.070216515265351 1.851570276743969 3.954000000000000
-0.070216515265351 1.862406537932395 3.954000000000000
-0.070287548664709 1.875137834830604 3.958000000000000
-0.070358582064067 1.887891056384734 3.962000000000000
-0.069275322723858 1.869515596652105 3.901000000000000
-0.059413974455297 0.345329971552759 3.954000000000000
-0.059684447783621 0.357787626820432 3.972000000000000
-0.059714500375657 0.368858854546351 3.974000000000000
-0.059759579263711 0.380036603213058 3.977000000000000
-0.059774605559730 0.391034196982071 3.978000000000000
-0.059819684447784 0.402239351468678 3.981000000000000
-0.059774605559730 0.412838267294443 3.978000000000000
-0.059729526671675 0.423420739628267 3.975000000000000
-0.059774605559730 0.434642337606814 3.978000000000000
-0.059924868519910 0.446664393810670 3.988000000000000
-0.060075131480090 0.458741261654325 3.998000000000000
-0.060090157776108 0.469815591719057 3.999000000000000
-0.060165289256198 0.481376298350718 4.004000000000000
-0.060150262960180 0.492226624205916 4.003000000000000
-0.060315552216379 0.504579929073738 4.014000000000000
-0.060465815176559 0.516865081148633 4.024000000000000
-0.060721262208866 0.530123348114205 4.041000000000000
-0.061036814425244 0.544010501910186 4.062000000000000
-0.060946656649136 0.554322741897469 4.056000000000000
-0.060676183320811 0.562929199804870 4.038000000000000
-0.060616078136739 0.617649106844329 4.034000000000000
-0.060315552216379 0.625587586259818 4.014000000000000
-0.054425244177310 0.624052158756433 3.622000000000000
-0.054620586025545 0.636254008101160 3.635000000000000
-0.054650638617581 0.646571575779833 3.637000000000000
-0.054635612321563 0.656358555822914 3.636000000000000
-0.054635612321563 0.666323311938523 3.636000000000000
-0.054680691209617 0.676846061509622 3.639000000000000
-0.054665664913599 0.686630300970714 3.638000000000000
-0.054680691209617 0.696792017232780 3.639000000000000
-0.054740796393689 0.707541873352225 3.643000000000000
-0.054800901577761 0.718313654127591 3.647000000000000
-0.054830954169797 0.728707958101983 3.649000000000000
-0.054936138241923 0.740125430956518 3.656000000000000
-0.055071374906086 0.751991635743766 3.665000000000000
-0.055236664162284 0.764323015955668 3.676000000000000
-0.055341848234410 0.775872036745723 3.683000000000000
-0.054981217129977 0.780843912893342 3.659000000000000
-0.056664162283997 0.928761936604857 3.771000000000000
-0.057595792637115 1.017564510559462 3.833000000000000
-0.057475582268971 1.025923439101528 3.825000000000000
-0.057355371900826 1.034238518331753 3.817000000000000
-0.057385424492863 1.045246712671903 3.819000000000000
-0.057220135236664 1.052672188025849 3.808000000000000
-0.057490608564989 1.068133521154552 3.826000000000000
-0.057505634861007 1.078900906036406 3.827000000000000
-0.057385424492863 1.087111843151011 3.819000000000000
-0.057250187828700 1.094991531601651 3.810000000000000
-0.057145003756574 1.103402169444703 3.803000000000000
-0.057220135236664 1.115289005333173 3.808000000000000
-0.057265214124718 1.126612004845349 3.811000000000000
-0.057325319308790 1.138249809529551 3.815000000000000
-0.057325319308790 1.148705129821369 3.815000000000000
-0.057310293012772 1.158856607269120 3.814000000000000
-0.057220135236664 1.167469686422609 3.808000000000000
-0.057205108940646 1.177596498632449 3.807000000000000
-0.057235161532682 1.188654023448419 3.809000000000000
-0.057415477084899 1.202870562312613 3.821000000000000
-0.057400450788881 1.213024780342354 3.820000000000000
-0.057400450788881 1.223493803544121 3.820000000000000
-0.057385424492863 1.233639799827891 3.819000000000000
-0.057430503380917 1.245083384947627 3.822000000000000
-0.057625845229151 1.259828494379066 3.835000000000000
-0.057761081893313 1.273319864286380 3.844000000000000
-0.058046581517656 1.290200457129076 3.863000000000000
-0.058061607813674 1.301124055184359 3.864000000000000
-0.057941397445530 1.361836321481229 3.856000000000000
-0.055942900075131 1.335270643433839 3.723000000000000
-0.055657400450789 1.338607323931310 3.704000000000000
-0.055447032306536 1.343660540552392 3.690000000000000
-0.055356874530428 1.351572030716443 3.684000000000000
-0.055221637866266 1.358341783461136 3.675000000000000
-0.055131480090158 1.366179277911457 3.669000000000000
-0.055011269722014 1.373233689426286 3.661000000000000
-0.054966190833959 1.382133444418256 3.658000000000000
-0.055011269722014 1.393300230757003 3.661000000000000
-0.055026296018032 1.403716821144138 3.662000000000000
-0.055026296018032 1.413752832391487 3.662000000000000
-0.054981217129977 1.422622440981567 3.659000000000000
-0.054996243425996 1.433041771950691 3.660000000000000
-0.055071374906086 1.445043712282740 3.665000000000000
-0.055131480090158 1.456676035802963 3.669000000000000
-0.055236664162284 1.469529573620254 3.676000000000000
-0.055326821938392 1.482018975789698 3.682000000000000
-0.055582268970699 1.498998953097680 3.699000000000000
-0.055732531930879 1.513216215475518 3.709000000000000
-0.055867768595041 1.527077563951480 3.718000000000000
-0.055987978963186 1.540574776779597 3.726000000000000
-0.056438767843727 1.563272386443985 3.756000000000000
-0.056994740796394 1.589067062041295 3.793000000000000
-0.057325319308790 1.608739222661324 3.815000000000000
-0.057385424492863 1.620892256759645 3.819000000000000
-0.057340345604808 1.682367336647610 3.816000000000000
-0.057520661157025 1.698148747828089 3.828000000000000
-0.057535687453043 1.709086048793322 3.829000000000000
-0.057610818933133 1.721825205680678 3.834000000000000
-0.057761081893313 1.736850939745564 3.844000000000000
-0.058151765589782 1.759204683106504 3.870000000000000
