# This PCD file was generated using the MATLAB® pcwrite function
# from Computer Vision Toolbox®.
# .PCD v.7 - Point Cloud Data file format
VERSION .7
FIELDS x y z
SIZE 8 8 8
TYPE F F F
COUNT 1 1 1
WIDTH 866
HEIGHT 1
VIEWPOINT 0 0 0 1 0 0 0
POINTS 866
DATA ascii
-0.054755822689707 1.077243281463252 3.644000000000000
-0.054740796393689 1.086931600554694 3.643000000000000
-0.054635612321563 1.094807824909698 3.636000000000000
-0.054500375657400 1.102037995428709 3.627000000000000
-0.054395191585274 1.109832002324013 3.620000000000000
-0.054380165289256 1.119443585119736 3.619000000000000
-0.054350112697220 1.128737622161442 3.617000000000000
-0.054169797145004 1.134872645154925 3.605000000000000
-0.054049586776860 1.142212077196713 3.597000000000000
-0.053989481592787 1.150788805270687 3.593000000000000
-0.053944402704733 1.159666635606737 3.590000000000000
-0.053944402704733 1.169505324950807 3.590000000000000
-0.053959429000751 1.179672522376852 3.591000000000000
-0.053884297520661 1.187857708983080 3.586000000000000
-0.053779113448535 1.195347511277495 3.579000000000000
-0.053613824192337 1.201452026112265 3.568000000000000
-0.053328324567994 1.204780484863766 3.549000000000000
-0.053057851239669 1.247054992518211 3.531000000000000
-0.053072877535687 1.257087901426747 3.532000000000000
-0.053148009015778 1.268560909434727 3.537000000000000
-0.053208114199850 1.279699928196752 3.541000000000000
-0.053117956423742 1.287219515136234 3.535000000000000
-0.053057851239669 1.295439967551509 3.531000000000000
-0.053042824943651 1.304747345746343 3.530000000000000
-0.053072877535687 1.315166314958644 3.532000000000000
-0.053042824943651 1.324095854595682 3.530000000000000
-0.053012772351615 1.333014431904759 3.528000000000000
-0.053012772351615 1.342683205165449 3.528000000000000
-0.053057851239669 1.353501937591467 3.531000000000000
-0.053072877535687 1.363564992901892 3.532000000000000
-0.053027798647633 1.372078325833274 3.529000000000000
-0.053072877535687 1.382924464079192 3.532000000000000
-0.053027798647633 1.391421353518633 3.529000000000000
-0.053057851239669 1.401886912624765 3.531000000000000
-0.053087903831705 1.412363434058856 3.533000000000000
-0.053178061607814 1.424460933003733 3.539000000000000
-0.053148009015778 1.433349363910920 3.537000000000000
-0.053117956423742 1.442226832490147 3.535000000000000
-0.053178061607814 1.453557691991471 3.539000000000000
-0.053208114199850 1.464083543901383 3.541000000000000
-0.053193087903832 1.473371738022286 3.540000000000000
-0.053117956423742 1.480978661828626 3.535000000000000
-0.053163035311796 1.491931682772153 3.538000000000000
-0.053148009015778 1.501203433401117 3.537000000000000
-0.054109691960932 1.587579868780934 3.601000000000000
-0.054515401953418 1.609426242716903 3.628000000000000
-0.054650638617581 1.623386252144505 3.637000000000000
-0.054740796393689 1.636048310979320 3.643000000000000
-0.054710743801653 1.645128582625806 3.641000000000000
-0.054830954169797 1.658743640479492 3.649000000000000
-0.054936138241923 1.671945232209512 3.656000000000000
-0.055086401202104 1.686565360139879 3.666000000000000
-0.055041322314050 1.695223943916730 3.663000000000000
-0.055041322314050 1.705262695746069 3.663000000000000
-0.055011269722014 1.714364892048475 3.661000000000000
-0.055056348610068 1.725811217750201 3.664000000000000
-0.055041322314050 1.735378951234084 3.663000000000000
-0.055086401202104 1.746847201591730 3.666000000000000
-0.055056348610068 1.755935694984187 3.664000000000000
-0.055041322314050 1.765495206722099 3.663000000000000
-0.055011269722014 1.774564516040626 3.661000000000000
-0.054951164537941 1.782647939356401 3.657000000000000
-0.054740796393689 1.785807413822399 3.643000000000000
-0.054139744552968 1.776073633956907 3.603000000000000
-0.053478587528174 1.764137873198752 3.559000000000000
-0.053117956423742 1.761929424532594 3.535000000000000
-0.052862509391435 1.763097581162336 3.518000000000000
-0.052667167543201 1.766188179321760 3.505000000000000
-0.052501878287002 1.770220814172098 3.494000000000000
-0.052381667918858 1.775721315698602 3.486000000000000
-0.052291510142750 1.782202222063877 3.480000000000000
-0.052186326070624 1.788135373787977 3.473000000000000
-0.051855747558227 1.786266033774932 3.451000000000000
-0.051600300525920 1.805700169367967 3.434000000000000
-0.052006010518407 1.829382733237230 3.461000000000000
-0.052081141998497 1.841524443250769 3.466000000000000
-0.052141247182570 1.853159507352981 3.470000000000000
-0.052171299774606 1.863742911484683 3.472000000000000
-0.052276483846732 1.877034942420372 3.479000000000000
-0.052441773102930 1.892534435412704 3.490000000000000
-0.052546957175056 1.905914164972073 3.497000000000000
-0.052682193839219 1.920427771961654 3.506000000000000
-0.052817430503381 1.934990709427054 3.515000000000000
-0.052937640871525 1.949049741563118 3.523000000000000
-0.053027798647633 1.962040670236731 3.529000000000000
-0.053072877535687 1.973388334986818 3.532000000000000
-0.053057851239669 1.982506613024342 3.531000000000000
-0.053087903831705 1.993312004297232 3.533000000000000
-0.053223140495868 2.008096928903822 3.542000000000000
-0.053884297520661 2.042869959384574 3.586000000000000
-0.058752817430503 2.248877402805260 3.910000000000000
-0.058888054094666 2.264794187773715 3.919000000000000
-0.058933132982720 2.277276453467658 3.922000000000000
-0.058842975206612 2.284524722790132 3.916000000000000
-0.058752817430503 2.291740105128725 3.910000000000000
-0.058602554470323 2.296567146999337 3.900000000000000
-0.058542449286251 2.304889000948241 3.896000000000000
-0.058632607062359 2.319132375591280 3.902000000000000
-0.058812922614576 2.336991147920172 3.914000000000000
-0.053163035311796 2.199752755655191 3.538000000000000
-0.053223140495868 2.211946898483362 3.542000000000000
-0.053313298271976 2.225417429005223 3.548000000000000
-0.053283245679940 2.233881069703962 3.546000000000000
-0.053343350864012 2.246130024171933 3.550000000000000
-0.053403456048084 2.258400903295824 3.554000000000000
-0.053493613824192 2.271970094769325 3.560000000000000
-0.053448534936138 2.279803763367188 3.557000000000000
-0.047160713066047 -0.306261002066399 3.836000000000000
-0.046632060651595 -0.282037885805430 3.793000000000000
-0.047615600027321 -0.266757935355152 3.873000000000000
-0.047517246089748 -0.170875780380722 3.865000000000000
-0.047713953964893 -0.160946958776166 3.881000000000000
-0.047640188511714 -0.128838870222481 3.875000000000000
-0.048636022129636 -0.120690275866983 3.956000000000000
-0.047443480636569 -0.107155078572486 3.859000000000000
-0.047345126698996 -0.054163031741421 3.851000000000000
-0.048193429410559 0.020068076056631 3.920000000000000
-0.049090909090909 0.042328080551186 3.993000000000000
-0.049201557270678 0.053391294815367 4.002000000000000
-0.049336793934841 0.064536003025602 4.013000000000000
-0.049459736356806 0.075722181722511 4.023000000000000
-0.049681032716345 0.120359750716662 4.041000000000000
-0.049779386653917 0.131694644354675 4.049000000000000
-0.050221979372994 0.144060829957850 4.085000000000000
-0.048636022129636 0.410555099400909 3.956000000000000
-0.048205723652756 0.417668608825770 3.921000000000000
-0.048095075472987 0.427431077103534 3.912000000000000
-0.047910661840038 0.436472202276875 3.897000000000000
-0.047910661840038 0.447152250291872 3.897000000000000
-0.047922956082235 0.457949781575615 3.898000000000000
-0.047873779113449 0.468151674769654 3.894000000000000
-0.047824602144662 0.478331643307773 3.890000000000000
-0.047750836691483 0.488238277160538 3.884000000000000
-0.047726248207090 0.498625806416251 3.882000000000000
-0.047689365480500 0.508871187165306 3.879000000000000
-0.047652482753910 0.519100124422422 3.876000000000000
-0.047603305785124 0.529175950844921 3.872000000000000
-0.047603305785124 0.539787484310168 3.872000000000000
-0.047615600027321 0.550541166282072 3.873000000000000
-0.047591011542927 0.560865662152014 3.871000000000000
-0.047504951847551 0.570441047340813 3.864000000000000
-0.047443480636569 0.580278804887006 3.859000000000000
-0.047480363363158 0.591314043290233 3.862000000000000
-0.047541834574141 0.602677428018614 3.867000000000000
-0.047566423058534 0.613592442571104 3.869000000000000
-0.047529540331945 0.623711756548621 3.866000000000000
-0.047271361245817 0.673011461113882 3.845000000000000
-0.047357420941193 0.684793431373086 3.852000000000000
-0.047382009425586 0.695711186507567 3.854000000000000
-0.047345126698996 0.705723617787473 3.851000000000000
-0.047259067003620 0.714975614301453 3.844000000000000
-0.047013182159689 0.721735643461245 3.824000000000000
-0.046373881565467 0.722258721902183 3.772000000000000
-0.045660815518066 0.721331462429361 3.714000000000000
-0.045205928556793 0.724222458521291 3.677000000000000
-0.044972337955058 0.730505264658003 3.658000000000000
-0.044837101290895 0.738303459162588 3.647000000000000
-0.044824807048699 0.748093179787660 3.646000000000000
-0.044837101290895 0.758293264197585 3.647000000000000
-0.044812512806502 0.767866840602270 3.645000000000000
-0.044787924322109 0.777429454678995 3.643000000000000
-0.044738747353323 0.786548817986988 3.639000000000000
-0.044751041595519 0.796740680650943 3.640000000000000
-0.044751041595519 0.806716399094512 3.640000000000000
-0.044701864626733 0.815794653672654 3.636000000000000
-0.044738747353323 0.826440729433302 3.639000000000000
-0.044787924322109 0.837333095816227 3.643000000000000
-0.044873984017485 0.848945149992052 3.650000000000000
-0.044898572501878 0.859418930844154 3.652000000000000
-0.044996926439451 0.871332087282055 3.660000000000000
-0.045230517041186 0.885937997073058 3.679000000000000
-0.045623932791476 0.903814199503406 3.711000000000000
-0.046263233385698 0.926791611626645 3.763000000000000
-0.046214056416911 0.997919383040182 3.759000000000000
-0.046201762174715 1.007953015462363 3.758000000000000
-0.046005054299570 1.013916828817768 3.742000000000000
-0.045796052182228 1.019519247107316 3.725000000000000
-0.045796052182228 1.029727915020034 3.725000000000000
-0.045771463697835 1.039378227720439 3.723000000000000
-0.045673109760262 1.047326068964005 3.715000000000000
-0.045574755822690 1.055230060895732 3.707000000000000
-0.045451813400724 1.062515404811366 3.697000000000000
-0.045156751588006 1.065683978009570 3.673000000000000
-0.045009220681647 1.072235569465532 3.661000000000000
-0.044960043712861 1.081086355738505 3.657000000000000
-0.044960043712861 1.091108664075903 3.657000000000000
-0.044898572501878 1.099625461102920 3.652000000000000
-0.044800218564306 1.107203323777837 3.644000000000000
-0.044726453111126 1.115350503993028 3.638000000000000
-0.044664981900143 1.123774121232385 3.633000000000000
-0.044603510689161 1.132170332651842 3.628000000000000
-0.044455979782802 1.138335502047215 3.616000000000000
-0.044406802814015 1.146975263506958 3.612000000000000
-0.044345331603033 1.155272813974776 3.607000000000000
-0.044283860392050 1.163542958622693 3.602000000000000
-0.044234683423263 1.172111464950697 3.598000000000000
-0.044197800696674 1.180986554704757 3.595000000000000
-0.044173212212281 1.190176449630843 3.593000000000000
-0.044013387063725 1.195681500523451 3.580000000000000
-0.043878150399563 1.201788755940211 3.569000000000000
-0.043509323133666 1.201385780764403 3.539000000000000
-0.043410969196093 1.237377997511552 3.531000000000000
-0.043570794344649 1.251646245676732 3.544000000000000
-0.043558500102452 1.261002954347385 3.543000000000000
-0.043570794344649 1.271071490821791 3.544000000000000
-0.043619971313435 1.282229693657745 3.548000000000000
-0.043558500102452 1.290132600319004 3.543000000000000
-0.043472440407076 1.297274348700690 3.536000000000000
-0.043435557680486 1.305856196181821 3.533000000000000
-0.043460146164879 1.316283387140093 3.535000000000000
-0.043472440407076 1.326346442450519 3.536000000000000
-0.043447851922683 1.335281463251536 3.534000000000000
-0.043472440407076 1.345727838283738 3.536000000000000
-0.043509323133666 1.356568495365676 3.539000000000000
-0.043509323133666 1.366267415028255 3.539000000000000
-0.043447851922683 1.374022330262054 3.534000000000000
-0.043460146164879 1.384099088482430 3.535000000000000
-0.043484734649273 1.394575609916522 3.537000000000000
-0.043570794344649 1.407048206837204 3.544000000000000
-0.043595382829042 1.417560355837165 3.546000000000000
-0.043632265555631 1.428485970960793 3.549000000000000
-0.043595382829042 1.436996563310184 3.546000000000000
-0.043619971313435 1.447530636966066 3.548000000000000
-0.043632265555631 1.457664947408231 3.549000000000000
-0.043656854040025 1.468218205138043 3.551000000000000
-0.043607677071238 1.476285184961878 3.547000000000000
-0.043607677071238 1.486006029280378 3.547000000000000
-0.043644559797828 1.496991937207785 3.550000000000000
-0.043632265555631 1.506296574820629 3.549000000000000
-0.044431391298409 1.593311204047291 3.614000000000000
-0.044775630079913 1.615636818074686 3.642000000000000
-0.044886278259682 1.629635195650148 3.651000000000000
-0.044923160986271 1.640988341564214 3.654000000000000
-0.044910866744075 1.650550593884117 3.653000000000000
-0.044996926439451 1.663743963868167 3.660000000000000
-0.045009220681647 1.674231809387041 3.661000000000000
-0.045070691892630 1.686565360139879 3.666000000000000
-0.045070691892630 1.696612333715187 3.666000000000000
-0.045058397650434 1.706193770109020 3.665000000000000
-0.045046103408237 1.715769725338873 3.664000000000000
-0.045046103408237 1.725811217750201 3.664000000000000
-0.045070691892630 1.736800228016421 3.666000000000000
-0.045107574619220 1.748276700120037 3.669000000000000
-0.045132163103613 1.759290375624167 3.671000000000000
-0.045095280377023 1.767905110089178 3.668000000000000
-0.045058397650434 1.776503401062250 3.665000000000000
-0.044996926439451 1.784110324868589 3.660000000000000
-0.044935455228468 1.791689842855029 3.655000000000000
-0.044689570384537 1.791847810000932 3.635000000000000
-0.044234683423263 1.783469532950017 3.598000000000000
-0.043742913735401 1.773393180335776 3.558000000000000
-0.043410969196093 1.769612722877830 3.531000000000000
-0.043177378594358 1.769715516627111 3.512000000000000
-0.043017553445803 1.772754043728726 3.499000000000000
-0.042919199508230 1.778268248165180 3.491000000000000
-0.042845434055051 1.784762857440406 3.485000000000000
-0.042783962844068 1.791739447389047 3.480000000000000
-0.042525783757940 1.790406899689218 3.459000000000000
-0.042279898914009 1.808329319294245 3.439000000000000
-0.042538078000137 1.828854162669984 3.460000000000000
-0.042587254968923 1.840461820952297 3.464000000000000
-0.042648726179906 1.852625455621756 3.469000000000000
-0.042685608906495 1.863742911484683 3.472000000000000
-0.042759374359675 1.876495409525167 3.478000000000000
-0.042882316781641 1.891449888458313 3.488000000000000
-0.042956082234820 1.904279122794516 3.494000000000000
-0.043079024656786 1.919332262679302 3.504000000000000
-0.043201967078751 1.934440214203888 3.514000000000000
-0.043300321016324 1.948496505757963 3.522000000000000
-0.043361792227307 1.960928717462440 3.527000000000000
-0.043423263438290 1.973388334986818 3.532000000000000
-0.043423263438290 1.983068070575467 3.532000000000000
-0.043472440407076 1.995004598696579 3.536000000000000
-0.043558500102452 2.008663867618927 3.543000000000000
-0.043865856157366 2.032615732036855 3.568000000000000
-0.047947544566628 2.243125798194504 3.900000000000000
-0.048131958199577 2.262482583601454 3.915000000000000
-0.048205723652756 2.276695811842603 3.921000000000000
-0.048144252441773 2.284524722790132 3.916000000000000
-0.048095075472987 2.292912350706796 3.912000000000000
-0.047996721535414 2.298922600483438 3.904000000000000
-0.047935250324431 2.306663812807288 3.899000000000000
-0.047984427293218 2.319726720126286 3.903000000000000
-0.048009015777611 2.331617381867213 3.905000000000000
-0.048058192746397 2.344718657334071 3.909000000000000
-0.043238849805341 2.177057371343378 3.517000000000000
-0.043533911618059 2.201618006719907 3.541000000000000
-0.043546205860255 2.211946898483362 3.542000000000000
-0.043570794344649 2.222908502929682 3.544000000000000
-0.043570794344649 2.232621125502212 3.544000000000000
-0.043595382829042 2.243599173440472 3.546000000000000
-0.043546205860255 2.250775464117560 3.542000000000000
-0.043570794344649 2.261758993219800 3.544000000000000
-0.043558500102452 2.270830681363494 3.543000000000000
-0.043521617375862 2.278609538321558 3.540000000000000
-0.036670992418551 -0.306181163431866 3.835000000000000
-0.035982514855543 -0.269494351660519 3.763000000000000
-0.037063042141930 -0.203229589515630 3.876000000000000
-0.035676524827539 -0.185401719989257 3.731000000000000
-0.036221569564920 -0.177852852671793 3.788000000000000
-0.036709241172051 -0.169726292595496 3.839000000000000
-0.036957858069804 -0.160283430989405 3.865000000000000
-0.036785738679052 -0.148993943313802 3.847000000000000
-0.036680554606926 -0.138055041848687 3.836000000000000
-0.037560275937436 -0.130601053479717 3.928000000000000
-0.037273410286183 -0.108238014064667 3.898000000000000
-0.038258315688819 -0.100133005925138 4.001000000000000
-0.037110853083806 -0.086493567854070 3.881000000000000
-0.037254285909432 -0.076150556612202 3.896000000000000
-0.037416843111809 -0.065758938408160 3.913000000000000
-0.038038385356192 0.020365001671755 3.978000000000000
-0.038067071921317 0.031290616795383 3.981000000000000
-0.038229629123694 0.042381083406872 3.998000000000000
-0.038353937572570 0.053511365193512 4.011000000000000
-0.038487808209822 0.064728983847010 4.025000000000000
-0.038612116658698 0.076004516479119 4.038000000000000
-0.038592992281948 0.109149838579721 4.036000000000000
-0.038659927600574 0.120419320006797 4.043000000000000
-0.038803360426200 0.131987371398190 4.058000000000000
-0.039071101700704 0.144096095766897 4.086000000000000
-0.039300594221706 0.156206267162895 4.110000000000000
-0.037981012225941 0.412215585141661 3.972000000000000
-0.037627211256062 0.419159901996788 3.935000000000000
-0.037397718735059 0.427321815580757 3.911000000000000
-0.037369032169934 0.437704225429312 3.908000000000000
-0.037311659039683 0.447725963725657 3.902000000000000
-0.037292534662933 0.458184748113109 3.900000000000000
-0.037244723721057 0.468271898620391 3.895000000000000
-0.037206474967557 0.478454607740500 3.891000000000000
-0.037158664025681 0.488489687189972 3.886000000000000
-0.037110853083806 0.498497360819544 3.881000000000000
-0.037082166518680 0.508740000986609 3.878000000000000
-0.037082166518680 0.519367977943796 3.878000000000000
-0.037082166518680 0.529995954900983 3.878000000000000
-0.037072604330305 0.540484523933503 3.877000000000000
-0.037053479953555 0.550825463295385 3.875000000000000
-0.037024793388430 0.561010551240661 3.872000000000000
-0.036996106823304 0.571179195693998 3.869000000000000
-0.036967420258179 0.581331396655394 3.866000000000000
-0.036996106823304 0.592385819132551 3.869000000000000
-0.037034355576805 0.603612536518255 3.873000000000000
-0.037043917765180 0.614385402564088 3.874000000000000
-0.037015231200055 0.624518419451555 3.871000000000000
-0.036833549620928 0.674236709547639 3.852000000000000
-0.036890922751178 0.685860087808247 3.858000000000000
-0.036881360562803 0.696252736471117 3.857000000000000
-0.036910047127928 0.707372932916034 3.860000000000000
-0.036871798374428 0.717207588123414 3.856000000000000
-0.036737927737176 0.725132934670006 3.842000000000000
-0.036192882999795 0.724747948674380 3.785000000000000
-0.035561778567038 0.722302560251695 3.719000000000000
-0.035179291032033 0.724616378814205 3.679000000000000
-0.034988047264531 0.730704965386449 3.659000000000000
-0.034901987569155 0.738910783093898 3.650000000000000
-0.034901987569155 0.748913907357366 3.650000000000000
-0.034930674134280 0.759540799044085 3.653000000000000
-0.034901987569155 0.768920155884304 3.650000000000000
-0.034892425380780 0.778709876509376 3.649000000000000
-0.034854176627280 0.787845683309307 3.645000000000000
-0.034863738815655 0.798053989465203 3.646000000000000
-0.034844614438904 0.807602900631978 3.644000000000000
-0.034815927873779 0.816916483504437 3.641000000000000
-0.034815927873779 0.826894942529996 3.641000000000000
-0.034844614438904 0.837562942946564 3.644000000000000
-0.034882863192405 0.848479974567399 3.648000000000000
-0.034930674134280 0.859654259138470 3.653000000000000
-0.035054982583157 0.872760500539895 3.666000000000000
-0.035236664162284 0.887382853822838 3.685000000000000
-0.035513967625162 0.904544849624266 3.714000000000000
-0.036020763609043 0.927776774115751 3.767000000000000
-0.036460624274298 0.949555981868310 3.813000000000000
-0.036116385492794 1.002697927571899 3.777000000000000
-0.036173758623045 1.014658397417275 3.783000000000000
-0.036049450174168 1.021503592902989 3.770000000000000
-0.035858206406666 1.026361658161727 3.750000000000000
-0.035810395464791 1.035256655503363 3.745000000000000
-0.035772146711290 1.044403424631255 3.741000000000000
-0.035695649204289 1.052400596350641 3.733000000000000
-0.035609589508913 1.060069259988051 3.724000000000000
-0.035513967625162 1.067401193797515 3.714000000000000
-0.035370534799536 1.073227616296597 3.699000000000000
-0.035160166655283 1.076921657723234 3.677000000000000
-0.035141042278533 1.086407535504240 3.675000000000000
-0.035112355713408 1.095584089277199 3.672000000000000
-0.034997609452906 1.102034279199531 3.660000000000000
-0.034873301004030 1.108114852310037 3.647000000000000
-0.034844614438904 1.117190004549366 3.644000000000000
-0.034815927873779 1.126248713296756 3.641000000000000
-0.034748992555153 1.134042720192060 3.634000000000000
-0.034605559729527 1.139279917563294 3.619000000000000
-0.034557748787651 1.147610355014991 3.614000000000000
-0.034509937845776 1.155913386646788 3.609000000000000
-0.034481251280650 1.164835066294678 3.606000000000000
-0.034404753773649 1.172111464950697 3.598000000000000
-0.034376067208524 1.180986554704757 3.595000000000000
-0.034309131889898 1.188520206311012 3.588000000000000
-0.034232634382897 1.195681500523451 3.580000000000000
-0.034127450310771 1.201788755940211 3.569000000000000
-0.033955330920019 1.205459425683638 3.551000000000000
-0.033878833413018 1.241583190366306 3.543000000000000
-0.034050952803770 1.257650192114797 3.561000000000000
-0.034060514992145 1.267765318483033 3.562000000000000
-0.034012704050270 1.275733999112051 3.557000000000000
-0.034012704050270 1.285482249250451 3.557000000000000
-0.033984017485144 1.294138092445312 3.554000000000000
-0.033974455296769 1.303511244607905 3.553000000000000
-0.033936206543269 1.311770065171040 3.549000000000000
-0.033897957789768 1.320006961078254 3.545000000000000
-0.033888395601393 1.329347226256968 3.544000000000000
-0.033907519978144 1.339815525945090 3.546000000000000
-0.033888395601393 1.348772471402027 3.544000000000000
-0.033907519978144 1.359251733418108 3.546000000000000
-0.033917082166519 1.369355897458384 3.547000000000000
-0.033897957789768 1.378299140005371 3.545000000000000
-0.033878833413018 1.387231420224399 3.543000000000000
-0.033878833413018 1.396941302214938 3.543000000000000
-0.033936206543269 1.409033319995834 3.549000000000000
-0.033974455296769 1.420358698333178 3.553000000000000
-0.034022266238645 1.432108505122148 3.558000000000000
-0.034003141861895 1.441049007087145 3.556000000000000
-0.034003141861895 1.450794516643554 3.556000000000000
-0.033955330920019 1.458486398491584 3.551000000000000
-0.033974455296769 1.469045137385375 3.553000000000000
-0.033964893108394 1.478366218490158 3.552000000000000
-0.033974455296769 1.488519713006254 3.553000000000000
-0.034031828427020 1.500787128034509 3.559000000000000
-0.033993579673520 1.508843145530385 3.555000000000000
-0.034643808483027 1.597279051539385 3.623000000000000
-0.034901987569155 1.619185718279133 3.650000000000000
-0.034978485076156 1.632759667402969 3.658000000000000
-0.035016733829656 1.644581091080502 3.662000000000000
-0.035026296018032 1.655068936599376 3.663000000000000
-0.035121917901783 1.669653436963874 3.673000000000000
-0.035121917901783 1.679719594613112 3.673000000000000
-0.035121917901783 1.689785752262350 3.673000000000000
-0.035102793525032 1.698926316712617 3.671000000000000
-0.035083669148282 1.708055918834924 3.669000000000000
-0.035074106959907 1.717642836392736 3.668000000000000
-0.035083669148282 1.728166309477481 3.669000000000000
-0.035102793525032 1.739169022653651 3.671000000000000
-0.035112355713408 1.749706198648345 3.672000000000000
-0.035102793525032 1.759290375624167 3.671000000000000
-0.035074106959907 1.767905110089178 3.668000000000000
-0.035045420394782 1.776503401062250 3.665000000000000
-0.035035858206407 1.786060172218172 3.664000000000000
-0.035016733829656 1.795121259790729 3.662000000000000
-0.034949798511031 1.801706670028447 3.655000000000000
-0.034768116931904 1.802305509117916 3.636000000000000
-0.034270883136398 1.786352208635026 3.584000000000000
-0.033888395601393 1.776127864593325 3.544000000000000
-0.033649340892016 1.773242853932461 3.519000000000000
-0.033525032443139 1.776300565108006 3.506000000000000
-0.033429410559388 1.780815180631759 3.496000000000000
-0.033381599617512 1.787835619892240 3.491000000000000
-0.033324226487262 1.794313785675526 3.485000000000000
-0.033066047401134 1.789889291449932 3.458000000000000
-0.032893928010382 1.808855149279501 3.440000000000000
-0.033085171777884 1.828854162669984 3.460000000000000
-0.033123420531384 1.840461820952297 3.464000000000000
-0.033142544908135 1.851023300428079 3.466000000000000
-0.033190355850010 1.863206119171467 3.471000000000000
-0.033247728980261 1.875955876629961 3.477000000000000
-0.033372037429137 1.892534435412704 3.490000000000000
-0.033438972747763 1.905914164972073 3.497000000000000
-0.033515470254764 1.919880017320478 3.505000000000000
-0.033572843385015 1.932788728534392 3.511000000000000
-0.033668465268766 1.947943269952807 3.521000000000000
-0.033744962775767 1.962040670236731 3.529000000000000
-0.033792773717642 1.974505768925089 3.534000000000000
-0.033773649340892 1.983068070575467 3.532000000000000
-0.033821460282768 1.995568796829695 3.537000000000000
-0.033878833413018 2.008663867618927 3.543000000000000
-0.034070077180520 2.029767335551377 3.563000000000000
-0.034395191585274 2.058994305070625 3.597000000000000
-0.037349907793184 2.257281474213864 3.906000000000000
-0.037426405300184 2.272631320467214 3.914000000000000
-0.037426405300184 2.283357958376040 3.914000000000000
-0.037407280923434 2.292912350706796 3.912000000000000
-0.037359469981559 2.300689190596515 3.907000000000000
-0.037311659039683 2.308438624666334 3.902000000000000
-0.037273410286183 2.316754997451258 3.898000000000000
-0.037235161532682 2.325049445580263 3.894000000000000
-0.037187350590807 2.332722143354363 3.889000000000000
-0.037120415272181 2.339162302746611 3.882000000000000
-0.033754524964142 2.194778752815948 3.530000000000000
-0.033821460282768 2.208824443798885 3.537000000000000
-0.033859709036268 2.221026808373026 3.541000000000000
-0.033869271224643 2.231361181300461 3.542000000000000
-0.033850146847893 2.239802897343279 3.540000000000000
-0.033725838399016 2.241243665144730 3.527000000000000
-0.033764087152517 2.253462473210811 3.531000000000000
-0.033678027457141 2.257371058357953 3.522000000000000
-0.033735400587392 2.270885438191654 3.528000000000000
-0.025968171572980 -0.313966181218244 3.802000000000000
-0.025783757940031 -0.301390845359921 3.775000000000000
-0.026220886551465 -0.295979423710419 3.839000000000000
-0.025613004576190 -0.196623054871933 3.750000000000000
-0.025961341438426 -0.188880176274234 3.801000000000000
-0.025674475787173 -0.166189407102492 3.759000000000000
-0.026405300184414 -0.160324901476078 3.866000000000000
-0.026487261799057 -0.139566593401775 3.878000000000000
-0.026132094802268 -0.127209681928054 3.826000000000000
-0.026617034355577 -0.097530198472948 3.897000000000000
-0.026931220545045 -0.087875325444111 3.943000000000000
-0.026719486373882 -0.076463289904244 3.912000000000000
-0.026835598661294 -0.066027822388362 3.929000000000000
-0.027183935523530 0.009467724165904 3.980000000000000
-0.027245406734513 0.020421315150485 3.989000000000000
-0.027327368349156 0.031447816578329 4.001000000000000
-0.027395669694693 0.042518890831657 4.011000000000000
-0.027491291578444 0.053698141337294 4.025000000000000
-0.027559592923981 0.064889801198182 4.035000000000000
-0.027484461443890 0.108825309822794 4.024000000000000
-0.027668875076839 0.120657597167334 4.051000000000000
-0.027668875076839 0.131759694808790 4.051000000000000
-0.027853288709788 0.143813969294519 4.078000000000000
-0.027989891400861 0.155750190470448 4.098000000000000
-0.027211256061744 0.402542470799099 3.984000000000000
-0.026958541083259 0.409621076171736 3.947000000000000
-0.026815108257633 0.418201213529705 3.926000000000000
-0.026760467181203 0.428086646240196 3.918000000000000
-0.026719486373882 0.438152233848380 3.912000000000000
-0.026705826104774 0.448643905219712 3.910000000000000
-0.026651185028345 0.458419714650603 3.902000000000000
-0.026603374086470 0.468271898620391 3.895000000000000
-0.026562393279148 0.478208678875046 3.889000000000000
-0.026562393279148 0.488866802234122 3.889000000000000
-0.026535072740933 0.499011143206371 3.885000000000000
-0.026528242606379 0.509527118058791 3.884000000000000
-0.026535072740933 0.520305465268604 3.885000000000000
-0.026548733010040 0.531225960985075 3.887000000000000
-0.026528242606379 0.541460379406171 3.884000000000000
-0.026514582337272 0.551820502841983 3.882000000000000
-0.026487261799057 0.561879885772543 3.878000000000000
-0.026487261799057 0.572507862729729 3.878000000000000
-0.026480431664504 0.582985469434289 3.877000000000000
-0.026507752202718 0.594223149147953 3.881000000000000
-0.026507752202718 0.604859347851110 3.881000000000000
-0.026500922068165 0.615336954555669 3.880000000000000
-0.026391639915306 0.676337135434081 3.864000000000000
-0.026446280991736 0.688348952823622 3.872000000000000
-0.026391639915306 0.697516353052734 3.864000000000000
-0.026412130318967 0.708655733571581 3.867000000000000
-0.026391639915306 0.718695570671388 3.864000000000000
-0.026336998838877 0.727775272276821 3.856000000000000
-0.026084283860392 0.731258234078589 3.819000000000000
-0.025210026637525 0.726979900571685 3.691000000000000
-0.025059763677344 0.732701972670916 3.669000000000000
-0.024977802062701 0.740327872266955 3.657000000000000
-0.024957311659040 0.749734634927073 3.654000000000000
-0.024970971928147 0.760164566467335 3.656000000000000
-0.024950481524486 0.769552145053523 3.653000000000000
-0.024943651389932 0.779350087424565 3.652000000000000
-0.024916330851718 0.788494115970467 3.648000000000000
-0.024923160986271 0.798710643872333 3.649000000000000
-0.024902670582610 0.808046151400711 3.646000000000000
-0.024895840448057 0.817813947369863 3.645000000000000
-0.024889010313503 0.827576262175035 3.644000000000000
-0.024902670582610 0.838022637207237 3.646000000000000
-0.024916330851718 0.848479974567399 3.648000000000000
-0.024970971928147 0.860360244021420 3.656000000000000
-0.025046103408237 0.872998569416201 3.667000000000000
-0.025155385561096 0.886901234906245 3.683000000000000
-0.025326138924937 0.903083549382547 3.708000000000000
-0.025688136056280 0.926299030382092 3.761000000000000
-0.025968171572980 0.946816638621377 3.802000000000000
-0.026056963322177 1.012785966027745 3.815000000000000
-0.026132094802268 1.026191654379724 3.826000000000000
-0.026063793456731 1.033967562471566 3.816000000000000
-0.025865719554675 1.036488426522256 3.787000000000000
-0.025708626459941 1.040508958962525 3.764000000000000
-0.025626664845297 1.047474378298975 3.752000000000000
-0.025640325114405 1.058320878301716 3.754000000000000
-0.025565193634315 1.065477776620643 3.743000000000000
-0.025517382692439 1.073723979544296 3.736000000000000
-0.025442251212349 1.080771254583623 3.725000000000000
-0.025332969059490 1.086293834238639 3.709000000000000
-0.025237347175739 1.092319957466168 3.695000000000000
-0.025210026637525 1.101252961198840 3.691000000000000
-0.025128065022881 1.107755222178982 3.679000000000000
-0.025011952735469 1.112672494971032 3.662000000000000
-0.024977802062701 1.121175589088099 3.657000000000000
-0.024984632197254 1.131507221433544 3.658000000000000
-0.024909500717164 1.138099559862532 3.647000000000000
-0.024786558295198 1.142427969283557 3.629000000000000
-0.024697766546001 1.148245446523023 3.616000000000000
-0.024677276142340 1.157194531990813 3.613000000000000
-0.024663615873233 1.166450200884660 3.611000000000000
-0.024622635065911 1.174391837450601 3.605000000000000
-0.024554333720374 1.180986554704757 3.595000000000000
-0.024492862509391 1.187857708983080 3.586000000000000
-0.024451881702070 1.195681500523451 3.580000000000000
-0.024472372105730 1.206502973531459 3.583000000000000
-0.024383580356533 1.211909363472427 3.570000000000000
-0.024219657127245 1.242634488579995 3.546000000000000
-0.024356259818318 1.259416058714228 3.566000000000000
-0.024376750221979 1.270256715796166 3.569000000000000
-0.024376750221979 1.280037852918446 3.569000000000000
-0.024349429683765 1.288373409777300 3.565000000000000
-0.024322109145550 1.296687041980235 3.561000000000000
-0.024308448876443 1.305712501986922 3.559000000000000
-0.024281128338228 1.313987766041997 3.555000000000000
-0.024253807800014 1.322241105441151 3.551000000000000
-0.024240147530906 1.331222716135999 3.549000000000000
-0.024274298203675 1.342838234407459 3.554000000000000
-0.024253807800014 1.351436525380530 3.551000000000000
-0.024281128338228 1.362701610914094 3.555000000000000
-0.024260637934567 1.371286198977215 3.552000000000000
-0.024260637934567 1.381020746205664 3.552000000000000
-0.024233317396353 1.389189127563129 3.548000000000000
-0.024253807800014 1.400095558612827 3.551000000000000
-0.024308448876443 1.413003546313095 3.559000000000000
-0.024328939280104 1.423956567256623 3.562000000000000
-0.024342599549211 1.434523527896384 3.564000000000000
-0.024342599549211 1.444290962108713 3.564000000000000
-0.024335769414657 1.453650411361357 3.563000000000000
-0.024328939280104 1.463004379450020 3.562000000000000
-0.024315279010997 1.471939400251037 3.560000000000000
-0.024322109145550 1.482112078841062 3.561000000000000
-0.024328939280104 1.492290238595068 3.562000000000000
-0.024369920087426 1.504582318861233 3.568000000000000
-0.024328939280104 1.511814144691767 3.562000000000000
-0.024820708967967 1.602128642918610 3.634000000000000
-0.024950481524486 1.620516555855801 3.653000000000000
-0.025011952735469 1.634545079833153 3.662000000000000
-0.025066593811898 1.648173840596789 3.670000000000000
-0.025107574619220 1.660942782129213 3.676000000000000
-0.025148555426542 1.673744610645516 3.682000000000000
-0.025128065022881 1.682463487226147 3.679000000000000
-0.025114404753774 1.691625976332334 3.677000000000000
-0.025073423946452 1.698926316712617 3.671000000000000
-0.025073423946452 1.708986993197875 3.671000000000000
-0.025093914350113 1.720452502973531 3.674000000000000
-0.025114404753774 1.731934456241127 3.677000000000000
-0.025107574619220 1.741537817290880 3.676000000000000
-0.025100744484666 1.751135697176653 3.675000000000000
-0.025093914350113 1.760728095898445 3.674000000000000
-0.025087084215559 1.770315013456258 3.673000000000000
-0.025066593811898 1.778927007339278 3.670000000000000
-0.025066593811898 1.788984943242547 3.670000000000000
-0.025059763677344 1.798552676726430 3.669000000000000
-0.025032443139130 1.806636100042205 3.665000000000000
-0.024991462331808 1.813706231535329 3.659000000000000
-0.024793388429752 1.809279720241390 3.630000000000000
-0.024383580356533 1.789158148024314 3.570000000000000
-0.024117205108941 1.779289717884490 3.531000000000000
-0.024001092821529 1.780353732398612 3.514000000000000
-0.023919131206885 1.783871499591653 3.502000000000000
-0.023884980534117 1.790908382344075 3.497000000000000
-0.023823509323134 1.795858388647413 3.488000000000000
-0.023625435421078 1.790406899689218 3.459000000000000
-0.023461512191790 1.806225999353223 3.435000000000000
-0.023632265555631 1.828854162669984 3.460000000000000
-0.023673246362953 1.841524443250769 3.466000000000000
-0.023680076497507 1.851557352159304 3.467000000000000
-0.023714227170275 1.863742911484683 3.472000000000000
-0.023762038112151 1.877034942420372 3.479000000000000
-0.023809849054026 1.890365341503922 3.486000000000000
-0.023864490130456 1.904279122794516 3.494000000000000
-0.023919131206885 1.918236753396951 3.502000000000000
-0.023980602417868 1.932788728534392 3.511000000000000
-0.024062564032511 1.949049741563118 3.523000000000000
-0.024137695512602 1.964820552172459 3.534000000000000
-0.024178676319924 1.977858070739902 3.540000000000000
-0.024171846185370 1.986998273433346 3.539000000000000
-0.024165016050816 1.996132994962810 3.538000000000000
-0.024205996858138 2.009230806334033 3.544000000000000
-0.024253807800014 2.022931183986231 3.551000000000000
-0.024369920087426 2.042394128577145 3.568000000000000
-0.026562393279148 2.247457156481750 3.889000000000000
-0.026651185028345 2.265663620966548 3.902000000000000
-0.026692165835667 2.279857665133768 3.908000000000000
-0.026719486373882 2.292912350706796 3.912000000000000
-0.026733146642989 2.304811234193693 3.914000000000000
-0.026685335701113 2.311396644431411 3.907000000000000
-0.026596543951916 2.314377619311237 3.894000000000000
-0.026548733010040 2.320869849761295 3.887000000000000
-0.026535072740933 2.330322840558421 3.885000000000000
-0.026535072740933 2.340970001589537 3.885000000000000
-0.023850829861348 2.161582127020494 3.492000000000000
-0.024048903763404 2.189182999621800 3.521000000000000
-0.024076224301619 2.201330552556140 3.525000000000000
-0.024083054436172 2.211618335589746 3.526000000000000
-0.024083054436172 2.221281627686456 3.526000000000000
-0.024076224301619 2.230312207100299 3.525000000000000
-0.024069394167065 2.239337305350164 3.524000000000000
-0.024035243494297 2.245804147048667 3.519000000000000
-0.023960112014207 2.248397976354259 3.508000000000000
-0.023898640803224 2.252218862877720 3.499000000000000
-0.023413701249915 2.225307367232505 3.428000000000000
-0.015560412540127 -0.292741305503637 3.797000000000000
-0.015806297384058 -0.265655914449993 3.857000000000000
-0.015634177993306 -0.231397148698498 3.815000000000000
-0.015822689706987 -0.223605871422855 3.861000000000000
-0.015687453042825 -0.211203762270956 3.828000000000000
-0.015765316576737 -0.191166018975790 3.847000000000000
-0.015638276074039 -0.179167498890064 3.816000000000000
-0.015613687589646 -0.158002554222415 3.810000000000000
-0.015978416774810 -0.140322369178319 3.899000000000000
-0.015703845365754 -0.106405354000976 3.832000000000000
-0.015900553240899 -0.086471281441327 3.880000000000000
-0.015826787787719 -0.064901870721266 3.862000000000000
-0.016298067071921 0.009460587690402 3.977000000000000
-0.016351342121440 0.020426434557643 3.990000000000000
-0.016416911413155 0.031487116524065 4.006000000000000
-0.016441499897548 0.042529491402794 4.012000000000000
-0.016478382624138 0.053644776724785 4.021000000000000
-0.016482480704870 0.108771221696639 4.022000000000000
-0.016552148077317 0.120300181426528 4.039000000000000
-0.016675090499283 0.132345148895819 4.069000000000000
-0.016650502014890 0.143284982158811 4.063000000000000
-0.016646403934158 0.154381960393109 4.062000000000000
-0.016216105457278 0.399814396825310 3.957000000000000
-0.016158732327027 0.409205954736548 3.943000000000000
-0.016109555358241 0.418733818233640 3.931000000000000
-0.016113653438973 0.429616307559073 3.932000000000000
-0.016064476470186 0.439048250686516 3.920000000000000
-0.016052182227990 0.449447104027011 3.917000000000000
-0.015998907178471 0.458654681188097 3.904000000000000
-0.015962024451882 0.468271898620391 3.895000000000000
-0.015953828290417 0.478700536605954 3.893000000000000
-0.015957926371150 0.489495327307707 3.894000000000000
-0.015941534048221 0.499653371189906 3.890000000000000
-0.015941534048221 0.510314235130972 3.890000000000000
-0.015949730209685 0.521242952593413 3.892000000000000
-0.015962024451882 0.532319299726490 3.895000000000000
-0.015937435967489 0.542157419029505 3.889000000000000
-0.015912847483095 0.551962651348640 3.883000000000000
-0.015900553240899 0.562169663949836 3.880000000000000
-0.015896455160167 0.572655492400366 3.879000000000000
-0.015900553240899 0.583436580192169 3.880000000000000
-0.015904651321631 0.594223149147953 3.881000000000000
-0.015904651321631 0.604859347851110 3.881000000000000
-0.015888258998702 0.614861178559879 3.877000000000000
-0.015863670514309 0.624518419451555 3.871000000000000
-0.015859572433577 0.677387348377301 3.870000000000000
-0.015904651321631 0.689948937476362 3.881000000000000
-0.015892357079434 0.700043586215969 3.878000000000000
-0.015912847483095 0.711587849355689 3.883000000000000
-0.015896455160167 0.721485537948839 3.879000000000000
-0.015900553240899 0.732304993888502 3.880000000000000
-0.015199781435694 0.730525183207906 3.709000000000000
-0.015080937094461 0.734898680683830 3.680000000000000
-0.015019465883478 0.741947402750448 3.665000000000000
-0.015011269722014 0.751581271958913 3.663000000000000
-0.014994877399085 0.760788333890585 3.659000000000000
-0.014990779318353 0.770605460335557 3.658000000000000
-0.014982583156888 0.780203701978152 3.656000000000000
-0.014974386995424 0.789790981292787 3.654000000000000
-0.014957994672495 0.798929528674709 3.650000000000000
-0.014933406188102 0.807602900631978 3.644000000000000
-0.014941602349566 0.818038313336220 3.646000000000000
-0.014945700430298 0.828257581820075 3.647000000000000
-0.014957994672495 0.838942025728584 3.650000000000000
-0.014962092753227 0.849177737704379 3.651000000000000
-0.014974386995424 0.859889587432787 3.654000000000000
-0.015019465883478 0.872522431663588 3.665000000000000
-0.015076839013729 0.885937997073058 3.679000000000000
-0.015171094870569 0.901622249140827 3.702000000000000
-0.015367802745714 0.923589833537050 3.750000000000000
-0.015544020217198 0.944575357782979 3.793000000000000
-0.015744826173076 1.019953782825321 3.842000000000000
-0.015822689706987 1.035579189116601 3.861000000000000
-0.015798101222594 1.044534841018839 3.855000000000000
-0.015712041527218 1.049352159304550 3.834000000000000
-0.015548118297930 1.048802069687519 3.794000000000000
-0.015457960521822 1.053057930422104 3.772000000000000
-0.015478450925483 1.064804996629084 3.777000000000000
-0.015429273956697 1.071740269563644 3.765000000000000
-0.015384195068643 1.078897167882571 3.754000000000000
-0.015355508503518 1.087154333134184 3.747000000000000
-0.015294037292535 1.093030086109086 3.732000000000000
-0.015244860323748 1.099710484918577 3.720000000000000
-0.015191585274230 1.106026748080222 3.707000000000000
-0.015166996789837 1.114379471944662 3.701000000000000
-0.015121917901783 1.121180094604890 3.690000000000000
-0.015060446690800 1.126694090757113 3.675000000000000
-0.015056348610068 1.136456405562285 3.674000000000000
-0.015007171641281 1.142780528713077 3.662000000000000
-0.014937504268834 1.147464852035978 3.645000000000000
-0.014871934977119 1.152373541325236 3.629000000000000
-0.014835052250529 1.159436536342858 3.620000000000000
-0.014806365685404 1.167096254720652 3.613000000000000
-0.014773581039546 1.174391837450601 3.605000000000000
-0.014748992555153 1.182300587032662 3.599000000000000
-0.014712109828564 1.189182703638945 3.590000000000000
-0.014703913667099 1.198353414491101 3.588000000000000
-0.014708011747831 1.208523352499137 3.589000000000000
-0.014658834779045 1.214285656341981 3.577000000000000
-0.014576873164401 1.246489248696853 3.557000000000000
-0.014654736698313 1.262947791913091 3.576000000000000
-0.014662932859777 1.273459940913052 3.578000000000000
-0.014650638617581 1.282189779821643 3.575000000000000
-0.014626050133188 1.289818990040725 3.569000000000000
-0.014630148213920 1.299964262810851 3.570000000000000
-0.014609657810259 1.307913759365939 3.565000000000000
-0.014601461648794 1.316944700536606 3.563000000000000
-0.014593265487330 1.325964679379313 3.561000000000000
-0.014605559729527 1.336849185773091 3.564000000000000
-0.014626050133188 1.348505812774401 3.569000000000000
-0.014597363568062 1.355622895918177 3.562000000000000
-0.014601461648794 1.365768168688303 3.563000000000000
-0.014585069325866 1.373988621103577 3.559000000000000
-0.014605559729527 1.385686356834737 3.564000000000000
-0.014593265487330 1.394279166643828 3.561000000000000
-0.014605559729527 1.405221225259396 3.564000000000000
-0.014613755890991 1.415782704735177 3.566000000000000
-0.014630148213920 1.427154672966351 3.570000000000000
-0.014626050133188 1.436536046874914 3.569000000000000
-0.014630148213920 1.446722428374890 3.570000000000000
-0.014638344375384 1.457322275998531 3.572000000000000
-0.014646540536849 1.467933085950132 3.574000000000000
-0.014638344375384 1.476900993735029 3.572000000000000
-0.014642442456116 1.487106559308935 3.573000000000000
-0.014634246294652 1.496060764183882 3.571000000000000
-0.014683423263438 1.510907636905773 3.583000000000000
-0.014667030940510 1.519029428369408 3.579000000000000
-0.014933406188102 1.606537362354269 3.644000000000000
-0.015015367802746 1.625396293636917 3.664000000000000
-0.015052250529335 1.639454964016158 3.673000000000000
-0.015080937094461 1.652664777492148 3.680000000000000
-0.015105525578854 1.665461124844472 3.686000000000000
-0.015121917901783 1.677381209473644 3.690000000000000
-0.015109623659586 1.686122010710194 3.687000000000000
-0.015097329417390 1.694846368454805 3.684000000000000
-0.015068642852264 1.701703096309532 3.677000000000000
-0.015068642852264 1.711780216286731 3.677000000000000
-0.015076839013729 1.722793891790861 3.679000000000000
-0.015093231336657 1.734760566313863 3.683000000000000
-0.015076839013729 1.742959094073218 3.679000000000000
-0.015076839013729 1.753041695214396 3.679000000000000
-0.015060446690800 1.761207335989871 3.675000000000000
-0.015060446690800 1.771278974803089 3.675000000000000
-0.015056348610068 1.780865892360902 3.674000000000000
-0.015072740932996 1.792884637941713 3.678000000000000
-0.015064544771532 1.801984093662130 3.676000000000000
-0.015060446690800 1.811565530055963 3.675000000000000
-0.015044054367871 1.819654434535718 3.671000000000000
-0.015003073560549 1.824730869367419 3.661000000000000
-0.014765384878082 1.805696584686724 3.603000000000000
-0.014544088518544 1.788360013812533 3.549000000000000
-0.014429342258042 1.783900253777892 3.521000000000000
-0.014376067208524 1.786927818551548 3.508000000000000
-0.014347380643399 1.792956890645297 3.501000000000000
-0.014302301755345 1.796888123962004 3.490000000000000
-0.014175261252647 1.790406899689218 3.459000000000000
-0.014076907315074 1.806225999353223 3.435000000000000
-0.014187555494843 1.829911303804476 3.462000000000000
-0.014220340140701 1.843649687847711 3.470000000000000
-0.014224438221433 1.853693559084207 3.471000000000000
-0.014244928625094 1.865890080737545 3.476000000000000
-0.014269517109487 1.878653541105989 3.482000000000000
-0.014302301755345 1.892534435412704 3.490000000000000
-0.014335086401202 1.906459179031259 3.498000000000000
-0.014367871047060 1.920427771961654 3.506000000000000
-0.014400655692917 1.934440214203888 3.514000000000000
-0.014441636500239 1.949602977368274 3.524000000000000
-0.014490813469025 1.965932504946750 3.536000000000000
-0.014503107711222 1.977299353770767 3.539000000000000
-0.014494911549758 1.985875358331095 3.537000000000000
-0.014494911549758 1.995568796829695 3.537000000000000
-0.014515401953418 2.008096928903822 3.542000000000000
-0.014531794276347 2.020082787500754 3.546000000000000
-0.014556382760740 2.033235410511776 3.552000000000000
-0.014662932859777 2.057924129728189 3.578000000000000
-0.015953828290417 2.260437846341049 3.893000000000000
