# This PCD file was generated using the MATLAB® pcwrite function
# from Computer Vision Toolbox®.
# .PCD v.7 - Point Cloud Data file format
VERSION .7
FIELDS x y z
SIZE 8 8 8
TYPE F F F
COUNT 1 1 1
WIDTH 862
HEIGHT 1
VIEWPOINT 0 0 0 1 0 0 0
POINTS 862
DATA ascii
-0.082986134826856 1.363755803182364 4.050000000000000
-0.083273000478109 1.379607745980936 4.064000000000000
-0.083539375725702 1.395194214083302 4.077000000000000
-0.083416433303736 1.404297857413000 4.071000000000000
-0.083846731780616 1.422756301968286 4.092000000000001
-0.083641827744007 1.430466436092368 4.082000000000000
-0.083477904514719 1.438828105216423 4.074000000000000
-0.083887712587938 1.457111514281173 4.094000000000000
-0.084092616624548 1.471918001786859 4.104000000000000
-0.083416433303736 1.471239313100530 4.071000000000000
-0.074798169523940 -0.763383588298811 4.212000000000000
-0.075206611570248 -0.755945747438926 4.235000000000000
-0.075171094870569 -0.743987864702948 4.233000000000000
-0.074371969127792 -0.724601152140669 4.188000000000000
-0.073999043781162 -0.709547760122340 4.167000000000000
-0.075188853220408 -0.697749127124636 4.234000000000000
-0.074851444573458 -0.683066437188601 4.215000000000000
-0.074318694078273 -0.666735418733522 4.185000000000000
-0.074123352230039 -0.653543758872634 4.174000000000000
-0.073697151833891 -0.638412545288117 4.150000000000000
-0.073999043781162 -0.629607724056281 4.167000000000000
-0.074336452428113 -0.621006429405349 4.186000000000000
-0.074425244177310 -0.610262416206706 4.191000000000000
-0.074052318830681 -0.595776324660305 4.170000000000000
-0.074318694078273 -0.529103391196154 4.185000000000000
-0.074389727477631 -0.518128807353530 4.189000000000000
-0.073430776586299 -0.500117351720811 4.135000000000000
-0.073590601734854 -0.489848906233728 4.144000000000000
-0.073555085035175 -0.478261002066399 4.142000000000000
-0.072969059490472 -0.463189566056248 4.109000000000000
-0.073093367939348 -0.452698409914329 4.116000000000000
-0.073555085035175 -0.444206530258766 4.142000000000000
-0.073430776586299 -0.432123512549125 4.135000000000000
-0.072631650843522 -0.416211857950154 4.090000000000000
-0.071850283450584 -0.400645878438745 4.046000000000000
-0.072436308995287 -0.392734793880829 4.079000000000000
-0.072667167543201 -0.382772000021925 4.092000000000001
-0.071033399357967 -0.264542898329889 4.000000000000000
-0.072436308995287 -0.258588786634730 4.079000000000000
-0.070944607608770 -0.165674594256836 3.995000000000000
-0.071317532955399 -0.155539297205155 4.016000000000000
-0.071317532955399 -0.144533119933349 4.016000000000000
-0.070944607608770 -0.132828719106790 3.995000000000000
-0.070411857113585 -0.120964849295396 3.965000000000000
-0.070642715661499 -0.110459420202474 3.978000000000000
-0.070323065364388 -0.099106899141102 3.960000000000000
-0.070323065364388 -0.088254194460736 3.960000000000000
-0.070820299159893 -0.077948773041443 3.988000000000000
-0.070340823714227 -0.055710145086411 3.961000000000000
-0.068600505429957 -0.043744939515356 3.863000000000000
-0.067996721535414 -0.032866232193069 3.829000000000000
-0.068476196981081 -0.022530302615063 3.856000000000000
-0.068689297179154 -0.011999846527409 3.868000000000000
-0.068582747080117 -0.001397104849186 3.862000000000000
-0.067961204835735 0.040568385742396 3.827000000000000
-0.067925688136056 0.051029910711839 3.825000000000000
-0.068103271634451 0.061673454174728 3.835000000000000
-0.068405163581723 0.072503565497169 3.852000000000000
-0.068671538829315 0.083383730809075 3.867000000000000
-0.068636022129636 0.093932954402197 3.865000000000000
-0.068493955330920 0.104308951288896 3.857000000000000
-0.067961204835735 0.113985836672276 3.827000000000000
-0.068014479885254 0.156060906694145 3.830000000000000
-0.068192063383649 0.166992211265984 3.840000000000000
-0.068280855132846 0.177747186792587 3.845000000000000
-0.068245338433167 0.188186787106110 3.843000000000000
-0.068192063383649 0.198563715790685 3.840000000000000
-0.068174305033809 0.209033100749275 3.839000000000000
-0.068476196981081 0.220526432913293 3.856000000000000
-0.068582747080117 0.231453703348443 3.862000000000000
-0.068369646882044 0.241285771446424 3.850000000000000
-0.068174305033809 0.251117477787583 3.839000000000000
-0.068209821733488 0.261774877633014 3.841000000000000
-0.068529472030599 0.273577533805079 3.859000000000000
-0.068813605628031 0.285331583014969 3.875000000000000
-0.068955672426747 0.296562334537362 3.883000000000000
-0.068920155727068 0.307045784162725 3.881000000000000
-0.068795847278191 0.317108992945742 3.874000000000000
-0.068760330578512 0.327556815005234 3.872000000000000
-0.068742572228673 0.338081011603624 3.871000000000000
-0.069026705826105 0.350131043668433 3.887000000000000
-0.069079980875623 0.361062139956041 3.890000000000000
-0.069168772624821 0.372200796961243 3.895000000000000
-0.069222047674339 0.383170261396710 3.898000000000000
-0.069293081073697 0.394257209100925 3.902000000000000
-0.068991189126426 0.403186693926322 3.885000000000000
-0.068937914076907 0.413514292135078 3.882000000000000
-0.068831363977870 0.423497662283562 3.876000000000000
-0.068866880677549 0.434344162286303 3.878000000000000
-0.068351888532204 0.441644601327538 3.849000000000000
-0.067890171436377 0.491047516210542 3.823000000000000
-0.068334130182365 0.504804415625702 3.848000000000000
-0.068493955330920 0.516555515969371 3.857000000000000
-0.068547230380439 0.527535942732799 3.860000000000000
-0.068280855132846 0.536023470344162 3.845000000000000
-0.068227580083328 0.546134562575708 3.842000000000000
-0.068138788334130 0.555939433138021 3.837000000000000
-0.068121029984291 0.566307416562981 3.836000000000000
-0.068298613482686 0.578323991602857 3.846000000000000
-0.068493955330920 0.590548489117149 3.857000000000000
-0.068476196981081 0.600963062435939 3.856000000000000
-0.068280855132846 0.609786234604781 3.845000000000000
-0.068156546683970 0.619194444292190 3.838000000000000
-0.068192063383649 0.630040944294930 3.840000000000000
-0.068138788334130 0.640064337902797 3.837000000000000
-0.068280855132846 0.651936385610848 3.845000000000000
-0.068298613482686 0.662646218270912 3.846000000000000
-0.068334130182365 0.673536567585492 3.848000000000000
-0.068280855132846 0.683548998865399 3.845000000000000
-0.068067754934772 0.691920336762715 3.833000000000000
-0.068245338433167 0.704257559895419 3.843000000000000
-0.068138788334130 0.713673629571976 3.837000000000000
-0.068316371832525 0.726076626672440 3.847000000000000
-0.068245338433167 0.735853729658030 3.843000000000000
-0.068476196981081 0.748910640583634 3.856000000000000
-0.068582747080117 0.760660085615781 3.862000000000000
-0.068405163581723 0.769247205976661 3.852000000000000
-0.068405163581723 0.811474093278449 3.852000000000000
-0.068724813878833 0.825872080595035 3.870000000000000
-0.068724813878833 0.836478132896302 3.870000000000000
-0.068636022129636 0.845989761185685 3.865000000000000
-0.068653780479475 0.856803735961369 3.866000000000000
-0.068813605628031 0.869418119631885 3.875000000000000
-0.068689297179154 0.878448129004675 3.868000000000000
-0.068724813878833 0.889508394402635 3.870000000000000
-0.068831363977870 0.901509972977861 3.876000000000000
-0.068866880677549 0.912603125359701 3.878000000000000
-0.068849122327710 0.922993033440581 3.877000000000000
-0.068831363977870 0.933377460357481 3.876000000000000
-0.069222047674339 0.949358057036992 3.898000000000000
-0.069239806024179 0.960287136256255 3.899000000000000
-0.069222047674339 0.970723634230965 3.898000000000000
-0.069257564374018 0.981909966400465 3.900000000000000
-0.069381872822895 0.994379822739157 3.907000000000000
-0.069594973020969 1.008174311976891 3.919000000000000
-0.069701523120005 1.020474613989027 3.925000000000000
-0.069737039819684 1.031756866528176 3.927000000000000
-0.069737039819684 1.042519132002872 3.927000000000000
-0.069896864968240 1.055695334981336 3.936000000000000
-0.070234273615190 1.071630427037486 3.955000000000000
-0.070482890512943 1.086301178998372 3.969000000000000
-0.070607198961820 1.099113608085813 3.976000000000000
-0.070518407212622 1.108614274047237 3.971000000000000
-0.070695990711017 1.165957334619580 3.981000000000000
-0.070767024110375 1.178050075914121 3.985000000000000
-0.070838057509733 1.190164741864582 3.989000000000000
-0.070784782460214 1.200193616636429 3.986000000000000
-0.070838057509733 1.212029104980733 3.989000000000000
-0.070695990711017 1.220508619130358 3.981000000000000
-0.070624957311659 1.230181580000329 3.977000000000000
-0.070909090909091 1.246073908015106 3.993000000000000
-0.071051157707807 1.259535493277352 4.001000000000000
-0.071086674407486 1.271135653327340 4.003000000000000
-0.070962365958609 1.279864198681232 3.996000000000000
-0.070997882658288 1.291461618149230 3.998000000000000
-0.071104432757325 1.304373069945134 4.004000000000000
-0.071264257905881 1.318302932970846 4.013000000000000
-0.071441841404276 1.332613375136344 4.023000000000000
-0.071619424902671 1.346978628941642 4.033000000000000
-0.071832525100744 1.362072154042632 4.045000000000000
-0.072045625298818 1.377231453111383 4.057000000000000
-0.072169933747695 1.390745471188261 4.064000000000000
-0.072454067345127 1.407402421578246 4.080000000000000
-0.072329758896250 1.416150151006068 4.073000000000000
-0.072347517246090 1.427662974189199 4.074000000000000
-0.072436308995287 1.440593971815855 4.079000000000000
-0.072951301140632 1.462094308907439 4.108000000000000
-0.072969059490472 1.473711274206190 4.109000000000000
-0.072507342394645 1.475576053890804 4.083000000000000
-0.063831705484598 -0.769908234352647 4.248000000000000
-0.063365890308039 -0.741175720636034 4.217000000000001
-0.063170548459805 -0.727369446895743 4.204000000000000
-0.063636363636364 -0.697913923800858 4.235000000000000
-0.063456048084147 -0.684362885942459 4.223000000000000
-0.063140495867769 -0.669443782441639 4.202000000000000
-0.062809917355372 -0.654483208454147 4.180000000000000
-0.062569496619083 -0.640566226163788 4.164000000000000
-0.062599549211119 -0.629456630290008 4.166000000000000
-0.062900075131480 -0.621006429405349 4.186000000000000
-0.063335837716003 -0.613757118661719 4.215000000000000
-0.063140495867769 -0.600348229309976 4.202000000000000
-0.063065364387678 -0.530620533536502 4.197000000000000
-0.062584522915101 -0.503745772652280 4.165000000000000
-0.062554470323065 -0.492094835099182 4.163000000000000
-0.062464312546957 -0.479992995072434 4.157000000000000
-0.062178812922615 -0.466458608990205 4.138000000000000
-0.062193839218633 -0.455228065752043 4.139000000000000
-0.062479338842975 -0.445922441529683 4.158000000000000
-0.062674680691210 -0.435885651957050 4.171000000000000
-0.062058602554470 -0.420282389568249 4.130000000000000
-0.061908339594290 -0.407973558864961 4.120000000000000
-0.061577761081893 -0.394564154283804 4.098000000000000
-0.061532682193839 -0.383052624655372 4.095000000000000
-0.061502629601803 -0.371648339481372 4.093000000000000
-0.061081893313298 -0.335684515163640 4.065000000000000
-0.060525920360631 -0.310550955640940 4.028000000000000
-0.060135236664162 -0.275642978903000 4.002000000000000
-0.060375657400451 -0.265733341372374 4.018000000000000
-0.060255447032307 -0.254214521795849 4.010000000000000
-0.060045078888054 -0.165716064743509 3.996000000000000
-0.060165289256198 -0.155074538348964 4.004000000000000
-0.060195341848234 -0.144173226706423 4.006000000000000
-0.059759579263711 -0.132230241774143 3.977000000000000
-0.059759579263711 -0.121330947199947 3.977000000000000
-0.059699474079639 -0.110320582318861 3.973000000000000
-0.059639368895567 -0.099332142093695 3.969000000000000
-0.059624342599549 -0.088432485762677 3.968000000000000
-0.059413974455297 -0.077284214795854 3.954000000000000
-0.058707738542449 -0.054950653080688 3.907000000000000
-0.058993238166792 -0.044458356856662 3.926000000000000
-0.058106686701728 -0.033192405299189 3.867000000000000
-0.057700976709241 -0.022436815882221 3.840000000000000
-0.057881292261458 -0.011950209106406 3.852000000000000
-0.057881292261458 -0.001393487280959 3.852000000000000
-0.057430503380917 0.040515382886710 3.822000000000000
-0.057490608564989 0.051043251864966 3.826000000000000
-0.057595792637115 0.061641290704494 3.833000000000000
-0.057941397445530 0.072578854765598 3.856000000000000
-0.058076634109692 0.083340605010880 3.865000000000000
-0.058016528925620 0.093835740477848 3.861000000000000
-0.057821187077385 0.104065554721201 3.848000000000000
-0.057505634861007 0.113985836672276 3.827000000000000
-0.057460555972953 0.155816424855982 3.824000000000000
-0.057836213373403 0.167383599261139 3.849000000000000
-0.057986476333584 0.178394380710688 3.859000000000000
-0.057926371149512 0.188774411734076 3.855000000000000
-0.057716003005259 0.198615425091672 3.841000000000000
-0.057625845229151 0.208815301217366 3.835000000000000
-0.057716003005259 0.219668575938786 3.841000000000000
-0.057911344853494 0.230974254972786 3.854000000000000
-0.057806160781367 0.241097756559583 3.847000000000000
-0.057761081893313 0.251444538842268 3.844000000000000
-0.057866265965440 0.262456405562285 3.851000000000000
-0.058151765589782 0.274357360929167 3.870000000000000
-0.058136739293764 0.284889779273526 3.869000000000000
-0.058226897069872 0.295951338226186 3.875000000000000
-0.058136739293764 0.306096402712080 3.869000000000000
-0.058031555221638 0.316126724511217 3.862000000000000
-0.058166791885800 0.327472218720367 3.871000000000000
-0.058271975957926 0.338692369671623 3.878000000000000
-0.058467317806161 0.350491353463821 3.891000000000000
-0.058422238918107 0.360876503894367 3.888000000000000
-0.058362133734035 0.371149652220145 3.884000000000000
-0.058407212622089 0.382088970253723 3.887000000000000
-0.058482344102179 0.393246811332855 3.892000000000000
-0.058482344102179 0.403913156437901 3.892000000000000
-0.058317054845980 0.413407771194291 3.881000000000000
-0.058287002253944 0.423825446851893 3.879000000000000
-0.058256949661908 0.434232160181536 3.877000000000000
-0.057731029301277 0.493487982547974 3.842000000000000
-0.057956423741548 0.505985091233974 3.857000000000000
-0.058121712997746 0.518028710336927 3.868000000000000
-0.057971450037566 0.527262608047445 3.858000000000000
-0.057896318557476 0.537138733741497 3.853000000000000
-0.057806160781367 0.546845305108993 3.847000000000000
-0.057700976709241 0.556374100403962 3.840000000000000
-0.057761081893313 0.567488453928076 3.844000000000000
-0.057836213373403 0.578775102360737 3.849000000000000
-0.058031555221638 0.591314043290233 3.862000000000000
-0.057896318557476 0.600495508186118 3.853000000000000
-0.057716003005259 0.609151866610393 3.841000000000000
-0.057625845229151 0.618710446550429 3.835000000000000
-0.057640871525169 0.629384651644623 3.836000000000000
-0.057685950413223 0.640397965391931 3.839000000000000
-0.057776108189331 0.651936385610848 3.845000000000000
-0.057716003005259 0.661784743728178 3.841000000000000
-0.057625845229151 0.671261106208514 3.835000000000000
-0.057625845229151 0.681771238140131 3.835000000000000
-0.057806160781367 0.694447569925949 3.847000000000000
-0.057791134485349 0.704807331604940 3.846000000000000
-0.057986476333584 0.717765581578904 3.859000000000000
-0.057836213373403 0.726454103473414 3.849000000000000
-0.057716003005259 0.735470771693077 3.841000000000000
-0.057625845229151 0.744832029729833 3.835000000000000
-0.057655897821187 0.755736081954364 3.837000000000000
-0.058061607813674 0.814002049955328 3.864000000000000
-0.058121712997746 0.825445273318242 3.868000000000000
-0.058001502629602 0.834316690692435 3.860000000000000
-0.057896318557476 0.843363143557166 3.853000000000000
-0.057866265965440 0.853479355195869 3.851000000000000
-0.058392186326071 0.871886145261808 3.886000000000000
-0.058196844477836 0.879583661746408 3.873000000000000
-0.058046581517656 0.887899464490279 3.863000000000000
-0.058076634109692 0.898951508142269 3.865000000000000
-0.058317054845980 0.913309110242651 3.881000000000000
-0.058437265214125 0.925849859956260 3.889000000000000
-0.058407212622089 0.936026364398744 3.887000000000000
-0.058512396694215 0.948383856875846 3.894000000000000
-0.058482344102179 0.958563101900319 3.892000000000000
-0.058587528174305 0.970972665435232 3.899000000000000
-0.058572501878287 0.981406422827952 3.898000000000000
-0.058692712246431 0.994125310370910 3.906000000000000
-0.058587528174305 1.003029252972161 3.899000000000000
-0.058707738542449 1.015794730408950 3.907000000000000
-0.058782870022539 1.027815854814928 3.912000000000000
-0.058918106686702 1.040926283825633 3.921000000000000
-0.059143501126972 1.055695334981336 3.936000000000000
-0.059504132231405 1.072985206338418 3.960000000000000
-0.059684447783621 1.087122268324901 3.972000000000000
-0.059624342599549 1.096902111892481 3.968000000000000
-0.059849737039820 1.166543095651793 3.983000000000000
-0.060015026296018 1.180710665796989 3.994000000000000
-0.060030052592036 1.191954911945101 3.995000000000000
-0.060030052592036 1.202903536995116 3.995000000000000
-0.060000000000000 1.213244476356999 3.993000000000000
-0.059834710743802 1.220815202556415 3.982000000000000
-0.059819684447784 1.231418876032514 3.981000000000000
-0.059984973703982 1.245761843425069 3.992000000000000
-0.060150262960180 1.260165103621405 4.003000000000000
-0.060165289256198 1.271453199081357 4.004000000000000
-0.060045078888054 1.279864198681232 3.996000000000000
-0.060120210368144 1.292430698903219 4.001000000000000
-0.060165289256198 1.304373069945134 4.004000000000000
-0.060570999248685 1.324216078446419 4.031000000000000
-0.060495867768595 1.333607121128243 4.026000000000000
-0.060691209616829 1.348982564417379 4.039000000000000
-0.060766341096920 1.361735424214686 4.044000000000000
-0.060901577761082 1.375873571471637 4.053000000000000
-0.061006761833208 1.389376627220557 4.060000000000000
-0.061066867017280 1.401883196395586 4.064000000000000
-0.061187077385424 1.415802458850161 4.072000000000000
-0.061141998497370 1.425910810499718 4.069000000000000
-0.061472577009767 1.444832051654489 4.091000000000000
-0.061457550713749 1.455687858673668 4.090000000000000
-0.061667918858002 1.471918001786859 4.104000000000000
-0.061457550713749 1.478105819351797 4.090000000000000
-0.052201352366642 -0.757909242886820 4.246000000000000
-0.052127586913462 -0.745218177732223 4.240000000000000
-0.051598934499010 -0.726158317940398 4.197000000000000
-0.051832525100744 -0.717891374292245 4.216000000000000
-0.051598934499010 -0.703153872716410 4.197000000000000
-0.052029232975890 -0.697419533772192 4.232000000000000
-0.051930879038317 -0.684524942036691 4.224000000000000
-0.051537463288027 -0.667850627319218 4.192000000000000
-0.051500580561437 -0.655892382826417 4.189000000000000
-0.051451403592651 -0.643796747477294 4.185000000000000
-0.051193224506523 -0.629154442757464 4.164000000000000
-0.051402226623864 -0.620264663483937 4.181000000000000
-0.051709582678779 -0.612446605241089 4.206000000000000
-0.052041527218086 -0.604777261939345 4.233000000000000
-0.051611228741206 -0.530746962064864 4.198000000000000
-0.051082576326754 -0.513923417176872 4.155000000000000
-0.051537463288027 -0.507011351490603 4.192000000000000
-0.051377638139471 -0.493986143617459 4.179000000000000
-0.051598934499010 -0.484611643088526 4.197000000000000
-0.051930879038317 -0.476153012173665 4.224000000000000
-0.051426815108258 -0.460067407354626 4.183000000000000
-0.051316166928488 -0.447638352800601 4.174000000000000
-0.051094870568950 -0.434318093870414 4.156000000000000
-0.050861279967215 -0.420994732601415 4.137000000000000
-0.050504746943515 -0.406785286363412 4.108000000000000
-0.050504746943515 -0.395526975548528 4.108000000000000
-0.050639983607677 -0.385297621722949 4.119000000000000
-0.050209685130797 -0.370831130818941 4.084000000000001
-0.050234273615190 -0.359814714732821 4.086000000000000
-0.050258862099583 -0.315176838793486 4.088000000000000
-0.049644149989755 -0.278122525939609 4.038000000000000
-0.049594973020969 -0.266791512965693 4.034000000000000
-0.049398265145823 -0.254721682936588 4.018000000000000
-0.048427020012294 -0.238918314213206 3.939000000000000
-0.048992555153337 -0.176181108620227 3.985000000000000
-0.049090909090909 -0.165591653283491 3.993000000000000
-0.049029437879926 -0.154454859874043 3.988000000000000
-0.049164674544089 -0.143921301447575 3.999000000000000
-0.049201557270678 -0.133061460291708 4.002000000000000
-0.048697493340619 -0.120842816660546 3.961000000000000
-0.048685199098422 -0.109959603821468 3.960000000000000
-0.048697493340619 -0.099131926135834 3.961000000000000
-0.048832730004781 -0.088521631413647 3.972000000000000
-0.048832730004781 -0.077636039749401 3.972000000000000
-0.049017143637730 -0.067002526816595 3.987000000000000
-0.048955672426747 -0.056005503088636 3.982000000000000
-0.048377843043508 -0.044560273619706 3.935000000000000
-0.047959838808825 -0.033484244394140 3.901000000000000
-0.047320538214603 -0.022489402169445 3.849000000000000
-0.046927122464313 -0.011841627247962 3.817000000000000
-0.046853357011133 -0.001378655251229 3.811000000000000
-0.047861484871252 0.009260766376348 3.893000000000000
-0.048021310019807 0.019996404356429 3.906000000000000
-0.047787719418073 0.030551777815537 3.887000000000000
-0.047025476401885 0.040547184600122 3.825000000000000
-0.047123830339458 0.051136639936857 3.833000000000000
-0.047271361245817 0.061834271525901 3.845000000000000
-0.047418892152175 0.072597677082705 3.857000000000000
-0.047443480636569 0.083211227616297 3.859000000000000
-0.047320538214603 0.093544098704801 3.849000000000000
-0.047160713066047 0.103741025964274 3.836000000000000
-0.046927122464313 0.155531196044792 3.817000000000000
-0.047246772761423 0.167122673931036 3.843000000000000
-0.047369715183389 0.178117011888645 3.853000000000000
-0.047406597909979 0.188823380453073 3.856000000000000
-0.047369715183389 0.199235936703518 3.853000000000000
-0.047246772761423 0.209250900281184 3.843000000000000
-0.047295949730210 0.220011718728589 3.847000000000000
-0.047308243972406 0.230614668691043 3.848000000000000
-0.047308243972406 0.241160428188530 3.848000000000000
-0.047443480636569 0.252425722006325 3.859000000000000
-0.047418892152175 0.262865322319848 3.857000000000000
-0.047541834574141 0.274144680804416 3.867000000000000
-0.047443480636569 0.284153439704456 3.859000000000000
-0.047554128816338 0.295416716453906 3.868000000000000
-0.047492657605355 0.305621711986757 3.863000000000000
-0.047504951847551 0.316290435916971 3.864000000000000
-0.047517246089748 0.326964641011165 3.865000000000000
-0.047664776996107 0.338605032804766 3.877000000000000
-0.047750836691483 0.349860811321892 3.884000000000000
-0.047726248207090 0.360319595709345 3.882000000000000
-0.047677071238303 0.370576300543183 3.878000000000000
-0.047701659722697 0.381400875890004 3.880000000000000
-0.047800013660269 0.392842652225627 3.888000000000000
-0.047861484871252 0.404016936796698 3.893000000000000
-0.047713953964893 0.413407771194291 3.881000000000000
-0.047640188511714 0.423388400760785 3.875000000000000
-0.047615600027321 0.433784151762468 3.873000000000000
-0.047603305785124 0.444283683122948 3.872000000000000
-0.047086947612868 0.481450206365824 3.830000000000000
-0.047369715183389 0.494900884111750 3.853000000000000
-0.047455774878765 0.506378649770065 3.860000000000000
-0.047480363363158 0.517225149772806 3.862000000000000
-0.047443480636569 0.527399275390122 3.859000000000000
-0.047394303667782 0.537417549590831 3.855000000000000
-0.047295949730210 0.546845305108993 3.847000000000000
-0.047345126698996 0.557967880379077 3.851000000000000
-0.047345126698996 0.568521861622534 3.851000000000000
-0.047418892152175 0.579978064381752 3.857000000000000
-0.047382009425586 0.590089156613298 3.854000000000000
-0.047234478519227 0.598781142603443 3.842000000000000
-0.047197595792637 0.608834682613200 3.839000000000000
-0.047111536097261 0.618226448808669 3.832000000000000
-0.047209890034834 0.630040944294930 3.840000000000000
-0.047173007308244 0.640064337902797 3.837000000000000
-0.047209890034834 0.651088613978064 3.840000000000000
-0.047074653370671 0.659717204825617 3.829000000000000
-0.047086947612868 0.670385928755830 3.830000000000000
-0.047209890034834 0.682660118502765 3.840000000000000
-0.047345126698996 0.695169636544016 3.851000000000000
-0.047517246089748 0.708289219098568 3.865000000000000
-0.047209890034834 0.714231623027466 3.840000000000000
-0.047455774878765 0.728530225878767 3.860000000000000
-0.047271361245817 0.736236687622983 3.845000000000000
-0.047246772761423 0.746385786245567 3.843000000000000
-0.047271361245817 0.757311763126017 3.845000000000000
-0.047283655488013 0.768049001605981 3.846000000000000
-0.047148418823851 0.797382689387918 3.835000000000000
-0.047431186394372 0.812738071616888 3.858000000000000
-0.047394303667782 0.822671026019085 3.855000000000000
-0.047382009425586 0.833019825370116 3.854000000000000
-0.047382009425586 0.843582028359542 3.854000000000000
-0.047615600027321 0.858355113651935 3.873000000000000
-0.047787719418073 0.872110511228164 3.887000000000000
-0.047677071238303 0.880719194488141 3.878000000000000
-0.047566423058534 0.889278547272299 3.869000000000000
-0.047652482753910 0.901509972977861 3.876000000000000
-0.047738542449286 0.913779766831284 3.883000000000000
-0.047886073355645 0.927278273214100 3.895000000000000
-0.047787719418073 0.936026364398744 3.887000000000000
-0.047824602144662 0.947409656714700 3.890000000000000
-0.047787719418073 0.957331648788937 3.887000000000000
-0.047886073355645 0.969976540618166 3.895000000000000
-0.047935250324431 0.981658194614208 3.899000000000000
-0.047959838808825 0.992852748529678 3.901000000000000
-0.047935250324431 1.003029252972161 3.899000000000000
-0.047972133051021 1.014494762747817 3.902000000000000
-0.048033604262004 1.026502184243846 3.907000000000000
-0.048181135168363 1.040395334433220 3.919000000000000
-0.048427020012294 1.056499980815926 3.939000000000000
-0.048771258793798 1.074881897359723 3.967000000000000
-0.048992555153337 1.090680322073195 3.985000000000000
-0.048881906973567 1.099113608085813 3.976000000000000
-0.049090909090909 1.169471900812856 3.993000000000000
-0.049140086059695 1.181597529091278 3.997000000000000
-0.049176968786285 1.193446720345532 4.000000000000000
-0.049164674544089 1.204107946043422 3.999000000000000
-0.049127791817499 1.214156004889198 3.996000000000000
-0.049017143637730 1.222348119686697 3.987000000000000
-0.048918789700157 1.230800228016421 3.979000000000000
-0.048943378184550 1.242329132934670 3.981000000000000
-0.049127791817499 1.257961467417221 3.996000000000000
-0.049324499692644 1.273993565113487 4.012000000000000
-0.049263028481661 1.283387348377301 4.007000000000000
-0.049312205450447 1.295660968083182 4.011000000000000
-0.049299911208251 1.306327674945051 4.010000000000000
-0.049447442114610 1.321259505708632 4.022000000000000
-0.049508913325593 1.333938369792209 4.027000000000000
-0.049582678778772 1.346978628941642 4.033000000000000
-0.049693326958541 1.361061964558793 4.042000000000000
-0.049816269380507 1.375534101061701 4.052000000000000
-0.049951506044669 1.390403260196335 4.063000000000000
-0.049951506044669 1.401538244821670 4.063000000000000
-0.050025271497849 1.414759382382442 4.069000000000000
-0.050283450583977 1.433269897995538 4.090000000000000
-0.050234273615190 1.443066185055058 4.086000000000000
-0.050418687248139 1.459602911594306 4.101000000000000
-0.050406393005942 1.470483383851394 4.100000000000000
-0.050369510279353 1.480635584812791 4.097000000000000
-0.040610614029096 -0.758087742472992 4.247000000000000
-0.040620176217471 -0.746624249765680 4.248000000000000
-0.039960385219589 -0.711591094204765 4.179000000000000
-0.040161191175466 -0.703656484491047 4.200000000000000
-0.040419370261594 -0.696595550391081 4.227000000000000
-0.040237688682467 -0.681932044528976 4.208000000000000
-0.040295061812718 -0.671355568588546 4.214000000000000
-0.040409808073219 -0.661685655245748 4.226000000000000
-0.040209002117342 -0.646873434442538 4.205000000000000
-0.040113380233591 -0.633838349511902 4.195000000000000
-0.040122942421966 -0.622489961248171 4.196000000000000
-0.040132504610341 -0.611136091820459 4.197000000000000
-0.040266375247592 -0.601634077492696 4.211000000000000
-0.039558773307834 -0.511697034142170 4.137000000000000
-0.040046444914965 -0.506527562033073 4.188000000000000
-0.040084693668465 -0.495522831788559 4.192000000000000
-0.040094255856840 -0.484149778286917 4.193000000000001
-0.040266375247592 -0.474687579134305 4.211000000000000
-0.040639300594222 -0.467436404794922 4.250000000000000
-0.039864763335838 -0.447102130528439 4.169000000000000
-0.039654395191585 -0.433377559018433 4.147000000000000
-0.039357967351957 -0.418857703501916 4.116000000000000
-0.039482275800833 -0.408864763241122 4.129000000000000
-0.039319718598456 -0.395912104054417 4.112000000000000
-0.039501400177584 -0.386420120256738 4.131000000000000
-0.039291032033331 -0.373101154881251 4.109000000000000
-0.038927668875077 -0.358493809025285 4.071000000000000
-0.038765111672700 -0.334776143781894 4.054000000000000
-0.038793798237825 -0.323905340298066 4.057000000000000
-0.038726862919200 -0.312247112796874 4.050000000000000
-0.039032852947203 -0.292340139111942 4.082000000000000
-0.039185847961205 -0.282255104333956 4.098000000000000
-0.038497370398197 -0.266262427169034 4.026000000000000
-0.038612116658698 -0.255989585788438 4.038000000000000
-0.038707738542449 -0.245529661318878 4.048000000000000
-0.037961887849191 -0.164637832090023 3.970000000000000
-0.038420872891196 -0.155616757014520 4.018000000000000
-0.038334813195820 -0.144281194674501 4.009000000000000
-0.037741957516563 -0.098781548209578 3.947000000000000
-0.037847141588689 -0.088209621635251 3.958000000000000
-0.038086196298067 -0.077851043887680 3.983000000000000
-0.038325251007445 -0.067355437040610 4.008000000000000
-0.037129977460556 -0.033329741343872 3.883000000000000
-0.036508435216174 -0.022308271624562 3.818000000000000
-0.036575370534800 -0.011866445958464 3.825000000000000
-0.036766614302302 -0.001390954983200 3.845000000000000
-0.036890922751178 0.009177507495492 3.858000000000000
-0.036948295881429 0.030370998065149 3.864000000000000
-0.036680554606926 0.040663790882632 3.836000000000000
-0.036699678983676 0.051203345702493 3.838000000000000
-0.036776176490677 0.061850353261018 3.846000000000000
-0.036804863055802 0.072447098545847 3.849000000000000
-0.036776176490677 0.082930909928032 3.846000000000000
-0.036661430230176 0.093179546488492 3.834000000000000
-0.036546683969674 0.103362409081192 3.822000000000000
-0.036365002390547 0.113271005190662 3.803000000000000
-0.036431937709173 0.155245967233602 3.810000000000000
-0.036613619288300 0.166513848160795 3.829000000000000
-0.036699678983676 0.177423589833537 3.838000000000000
-0.036823987432552 0.188578536858087 3.851000000000000
-0.036871798374428 0.199391064606480 3.856000000000000
-0.036814425244177 0.209632049462024 3.850000000000000
-0.036747489925552 0.219782956868721 3.843000000000000
-0.036776176490677 0.230494806597129 3.846000000000000
-0.036795300867427 0.241160428188530 3.848000000000000
-0.036890922751178 0.252360309795388 3.858000000000000
-0.036890922751178 0.262933475112775 3.858000000000000
-0.036900484939553 0.273577533805079 3.859000000000000
-0.036823987432552 0.283564368049199 3.851000000000000
-0.036900484939553 0.294729345603832 3.859000000000000
-0.036910047127928 0.305384366624096 3.860000000000000
-0.036967420258179 0.316454147322725 3.866000000000000
-0.036976982446554 0.327133833580899 3.867000000000000
-0.037063042141930 0.338517695937909 3.876000000000000
-0.037139539648931 0.349860811321892 3.884000000000000
-0.037129977460556 0.360412413740182 3.883000000000000
-0.037053479953555 0.370289624704702 3.875000000000000
-0.037120415272181 0.381597474279638 3.882000000000000
-0.037149101837306 0.392539532895206 3.885000000000000
-0.037177788402432 0.403498035002713 3.888000000000000
-0.037024793388430 0.412449082727208 3.872000000000000
-0.036996106823304 0.422732831624124 3.869000000000000
-0.036919609316304 0.432440126505265 3.861000000000000
-0.036948295881429 0.443365741628892 3.864000000000000
-0.036680554606926 0.482204436454125 3.836000000000000
-0.036852673997678 0.495029329708457 3.854000000000000
-0.036881360562803 0.505985091233974 3.857000000000000
-0.036890922751178 0.516689442730058 3.858000000000000
-0.037015231200055 0.529039283502244 3.871000000000000
-0.036986544634929 0.539229852611500 3.868000000000000
-0.036785738679052 0.546845305108993 3.847000000000000
-0.036900484939553 0.559126993088252 3.859000000000000
-0.037024793388430 0.571622084705908 3.872000000000000
-0.036996106823304 0.581782507413274 3.869000000000000
-0.036833549620928 0.589782934944065 3.852000000000000
-0.036776176490677 0.599404548269871 3.846000000000000
-0.036757052113927 0.609627642606184 3.844000000000000
-0.036709241172051 0.619355776872777 3.839000000000000
-0.036680554606926 0.629384651644623 3.836000000000000
-0.036670992418551 0.639730710413663 3.835000000000000
-0.036604057099925 0.649053962059383 3.828000000000000
-0.036565808346424 0.658855730282883 3.824000000000000
-0.036623181476675 0.670385928755830 3.830000000000000
-0.036709241172051 0.682482342430238 3.839000000000000
-0.036804863055802 0.694808603234983 3.849000000000000
-0.036795300867427 0.705173846077953 3.848000000000000
-0.036804863055802 0.715905603393937 3.849000000000000
-0.036862236186053 0.727586533876334 3.855000000000000
-0.036766614302302 0.736236687622983 3.845000000000000
-0.036766614302302 0.746774225374500 3.845000000000000
-0.036776176490677 0.757508723272474 3.846000000000000
-0.036556246158049 0.763455884851707 3.823000000000000
-0.036670992418551 0.797382689387918 3.835000000000000
-0.036938733693054 0.813791386898922 3.863000000000000
-0.036900484939553 0.823524640572672 3.859000000000000
-0.036843111809303 0.832803681149729 3.853000000000000
-0.036881360562803 0.844238682766672 3.857000000000000
-0.037053479953555 0.858798364420668 3.875000000000000
-0.037129977460556 0.871213047362738 3.883000000000000
-0.037101290895431 0.881173407584835 3.880000000000000
-0.037129977460556 0.892496407097011 3.883000000000000
-0.037120415272181 0.902905499251821 3.882000000000000
-0.037091728707056 0.912838453654018 3.879000000000000
-0.037110853083806 0.923945308945808 3.881000000000000
-0.037120415272181 0.934822317107261 3.882000000000000
-0.037225599344307 0.948140306835559 3.893000000000000
-0.037187350590807 0.957824230033490 3.889000000000000
-0.037254285909432 0.970225571822432 3.896000000000000
-0.037292534662933 0.981909966400465 3.900000000000000
-0.037369032169934 0.994634335107403 3.908000000000000
-0.037235161532682 1.001742988220979 3.894000000000000
-0.037311659039683 1.014494762747817 3.902000000000000
-0.037369032169934 1.026764918358062 3.908000000000000
-0.037617649067687 1.044377454876317 3.934000000000000
-0.037770644081688 1.059450348876087 3.950000000000000
-0.038000136602691 1.076778588381029 3.974000000000000
-0.038057509732942 1.089311839862313 3.980000000000000
-0.037942763472440 1.096902111892481 3.968000000000000
-0.037780206270064 1.103030721924108 3.951000000000000
-0.038172255993443 1.169179020296750 3.992000000000000
-0.038153131616693 1.179528181404603 3.990000000000000
-0.038210504746944 1.192253273625187 3.996000000000000
-0.038200942558568 1.202903536995116 3.995000000000000
-0.038191380370193 1.213548319201066 3.994000000000000
-0.038153131616693 1.223267869964866 3.990000000000000
-0.038172255993443 1.234821440121024 3.992000000000000
-0.038191380370193 1.246385972605142 3.994000000000000
-0.038248753500444 1.259220688105326 4.000000000000000
-0.038296564442320 1.271770744835373 4.005000000000000
-0.038267877877194 1.281785916697270 4.002000000000000
-0.038344375384195 1.295337941165186 4.010000000000000
-0.038449559456321 1.309911117444900 4.021000000000000
-0.038545181340072 1.324216078446419 4.031000000000000
-0.038478246021447 1.332944623800310 4.024000000000000
-0.038526056963322 1.345642671957817 4.029000000000000
-0.038631241035448 1.360388504902901 4.040000000000000
-0.038669489788949 1.372818337782211 4.044000000000000
-0.038726862919200 1.385954517301294 4.050000000000000
-0.038679051977324 1.395329116491178 4.045000000000000
-0.038832046991326 1.411977845135193 4.061000000000000
-0.038860733556451 1.424158646810236 4.064000000000000
-0.039157161396080 1.446244744934034 4.095000000000000
-0.039118912642579 1.456043772575544 4.091000000000000
-0.039080663889079 1.465820875561134 4.087000000000000
-0.038918106686702 1.470877918034674 4.070000000000000
-0.028946110238372 -0.733252073250275 4.238000000000000
-0.028672904856226 -0.714826373168606 4.198000000000000
-0.028713885663548 -0.704326633523895 4.204000000000000
-0.028604603510689 -0.690168480018417 4.188000000000000
-0.028713885663548 -0.681283820152047 4.204000000000000
-0.029007581449355 -0.676612980492537 4.247000000000000
-0.028966600642033 -0.664034279199531 4.241000000000000
-0.028775356874530 -0.636558037304802 4.213000000000000
-0.028666074721672 -0.622638314432453 4.197000000000000
-0.028638754183457 -0.610553641411290 4.193000000000001
-0.028310907724882 -0.535405962410177 4.145000000000000
-0.028440680281402 -0.526448392100546 4.164000000000000
-0.028584113107028 -0.517634055568040 4.185000000000000
-0.028556792568814 -0.505680930482397 4.181000000000000
-0.028625093914350 -0.495404625006166 4.191000000000000
-0.028590943241582 -0.483341514884101 4.186000000000000
-0.028754866470869 -0.474574853515893 4.210000000000000
-0.028959770507479 -0.466336554430699 4.240000000000000
-0.028836828085513 -0.452786086613353 4.222000000000000
-0.028194795437470 -0.431391985442029 4.128000000000000
-0.028304077590329 -0.421707075634582 4.144000000000000
-0.028187965302916 -0.408666717824197 4.127000000000000
-0.028194795437470 -0.397452618077975 4.128000000000000
-0.028133324226487 -0.385297621722949 4.119000000000000
-0.028099173553719 -0.373555159693713 4.114000000000000
-0.028078683150058 -0.362016224245381 4.111000000000000
-0.027709855884161 -0.346142422564856 4.057000000000000
-0.027682535345946 -0.334693564565371 4.053000000000000
-0.027668875076839 -0.323426308490871 4.051000000000000
-0.027600573731303 -0.311553230323992 4.041000000000000
-0.028160644764702 -0.306575851087737 4.123000000000000
-0.027327368349156 -0.275574102596427 4.001000000000000
-0.027347858752817 -0.264807441228219 4.004000000000000
-0.027463971040229 -0.254911868364366 4.021000000000000
-0.027648384673178 -0.245529661318878 4.048000000000000
-0.027279557407281 -0.165633123770164 3.994000000000000
-0.027341028618264 -0.155035808444281 4.003000000000000
-0.027402499829247 -0.144389162642579 4.012000000000000
-0.026999521890581 -0.131432271997281 3.953000000000000
-0.026733146642989 -0.097955657383402 3.914000000000000
-0.026787787719418 -0.087407310776517 3.922000000000000
-0.026753637046650 -0.076561019058007 3.917000000000000
-0.027074653370671 -0.066616006095054 3.964000000000000
-0.026302848166109 -0.043609050497964 3.851000000000000
-0.026268697493341 -0.033012151740544 3.846000000000000
-0.026350659107984 -0.022541988456669 3.858000000000000
-0.026466771395396 -0.012021562899097 3.875000000000000
-0.026330168704323 -0.001394572551427 3.855000000000000
-0.026186735878697 0.009120415691476 3.834000000000000
-0.026132094802268 0.019586851783845 3.826000000000000
-0.026453111126289 0.030441737967475 3.873000000000000
-0.026248207089680 0.040737994880593 3.843000000000000
-0.026173075609590 0.051123298783730 3.832000000000000
-0.026159415340482 0.061593045499142 3.830000000000000
-0.026200396147804 0.072202408423453 3.836000000000000
-0.026214056416911 0.082758406735254 3.838000000000000
-0.026159415340482 0.093082332564143 3.830000000000000
-0.026104774264053 0.103362409081192 3.822000000000000
-0.025934020900212 0.113092297320259 3.797000000000000
-0.026015982514856 0.155205220260574 3.809000000000000
-0.026070623591285 0.165991997500589 3.817000000000000
-0.026166245475036 0.177099992874487 3.831000000000000
-0.026255037224233 0.188235755825107 3.844000000000000
-0.026357489242538 0.199546192509441 3.859000000000000
-0.026282357762448 0.209523149696069 3.848000000000000
-0.026275527627894 0.220011718728589 3.847000000000000
-0.026227716686019 0.230135220315386 3.840000000000000
-0.026248207089680 0.240847070043794 3.843000000000000
-0.026275527627894 0.251640775475080 3.847000000000000
-0.026275527627894 0.262183794390577 3.847000000000000
-0.026309678300663 0.273081280180659 3.852000000000000
-0.026289187897002 0.283417100135385 3.849000000000000
-0.026364319377092 0.294805720142729 3.860000000000000
-0.026405300184414 0.305859057349419 3.866000000000000
-0.026459941260843 0.317108992945742 3.874000000000000
-0.026459941260843 0.327726007574969 3.874000000000000
-0.026500922068165 0.338867043405337 3.880000000000000
-0.026425790588075 0.348509649589187 3.869000000000000
-0.026562393279148 0.360969321925204 3.889000000000000
-0.026603374086470 0.372200796961243 3.895000000000000
-0.026664845297452 0.383760056565612 3.904000000000000
-0.026582883682809 0.393246811332855 3.892000000000000
-0.026589713817362 0.404016936796698 3.893000000000000
-0.026466771395396 0.412768645549569 3.875000000000000
-0.026425790588075 0.422732831624124 3.869000000000000
-0.026405300184414 0.433000137029099 3.866000000000000
-0.026323338569770 0.442218314761323 3.854000000000000
-0.026193566013250 0.482078731439408 3.835000000000000
-0.026296018031555 0.494515547321629 3.850000000000000
-0.026268697493341 0.504542043268308 3.846000000000000
-0.026296018031555 0.515618028644563 3.850000000000000
-0.026364319377092 0.527535942732799 3.860000000000000
-0.026391639915306 0.538672220912833 3.864000000000000
-0.026275527627894 0.546845305108993 3.847000000000000
-0.026418960453521 0.560430994886074 3.868000000000000
-0.026459941260843 0.571917344047182 3.874000000000000
-0.026364319377092 0.580429175139633 3.860000000000000
-0.026261867358787 0.588711159101747 3.845000000000000
-0.026248207089680 0.598936994020050 3.843000000000000
-0.026302848166109 0.610737786596361 3.851000000000000
-0.026261867358787 0.620323772356298 3.845000000000000
-0.026268697493341 0.631025383270391 3.846000000000000
-0.026248207089680 0.641065220370198 3.843000000000000
-0.026241376955126 0.651427722631178 3.842000000000000
-0.026179905744143 0.660406384459804 3.833000000000000
-0.026248207089680 0.672661390132808 3.843000000000000
-0.026268697493341 0.683726774937926 3.846000000000000
-0.026261867358787 0.694086536616916 3.845000000000000
-0.026227716686019 0.703707788185899 3.840000000000000
-0.026268697493341 0.715347609938446 3.846000000000000
-0.026302848166109 0.726831580274387 3.851000000000000
-0.026296018031555 0.737194082535367 3.850000000000000
-0.026336998838877 0.748910640583634 3.856000000000000
-0.026152585205929 0.754160400782710 3.829000000000000
-0.026193566013250 0.797382689387918 3.835000000000000
-0.026336998838877 0.812316745504075 3.856000000000000
-0.026350659107984 0.823311236934275 3.858000000000000
-0.026343828973431 0.833668258031275 3.857000000000000
-0.026377979646199 0.845333106778555 3.862000000000000
-0.026418960453521 0.857246986730102 3.868000000000000
-0.026459941260843 0.869193753665528 3.874000000000000
-0.026514582337272 0.881627620681528 3.882000000000000
-0.026555563144594 0.893645642748694 3.888000000000000
-0.026541902875487 0.903835850101127 3.886000000000000
-0.026487261799057 0.912603125359701 3.878000000000000
-0.026425790588075 0.921088482430129 3.869000000000000
-0.026494091933611 0.934099888732371 3.879000000000000
-0.026582883682809 0.947896756795273 3.892000000000000
-0.026658015162899 0.961272298745361 3.903000000000000
-0.026698995970221 0.973462977477897 3.909000000000000
-0.026705826104774 0.984427684263030 3.910000000000000
-0.026719486373882 0.995652384580389 3.912000000000000
-0.026692165835667 1.005344529524290 3.908000000000000
-0.026644354893791 1.014234769215590 3.901000000000000
-0.026787787719418 1.030443195957093 3.922000000000000
-0.026951710948706 1.047563151230795 3.946000000000000
-0.027040502697903 1.061864286379856 3.959000000000000
-0.027060993101564 1.073527118058791 3.962000000000000
-0.027067823236118 1.084659000345313 3.963000000000000
-0.027033672563349 1.094137741650817 3.958000000000000
-0.026890239737723 1.099122235437918 3.937000000000000
-0.027170275254423 1.165078693071260 3.978000000000000
-0.027197595792637 1.177163212619832 3.982000000000000
-0.027224916330852 1.189269656824323 3.986000000000000
-0.027272727272727 1.202301332470963 3.993000000000000
-0.027252236869066 1.212332947824800 3.990000000000000
-0.027218086196298 1.221734952834584 3.985000000000000
-0.027286387541835 1.235749412145163 3.995000000000000
-0.027334198483710 1.248882489325433 4.002000000000000
-0.027334198483710 1.259850298449379 4.002000000000000
-0.027347858752817 1.271453199081357 4.004000000000000
-0.027341028618264 1.282106203033276 4.003000000000000
-0.027395669694693 1.295660968083182 4.011000000000000
-0.027470801174783 1.310236884944887 4.022000000000000
-0.027498121712998 1.322573538036537 4.026000000000000
-0.027436650502015 1.330625883152546 4.017000000000000
-0.027429820367461 1.341300811760385 4.016000000000000
-0.027545932654873 1.358031396107277 4.033000000000000
-0.027614234000410 1.372478867372275 4.043000000000000
-0.027593743596749 1.382532407382032 4.040000000000000
-0.027532272385766 1.390499794456350 4.031000000000000
-0.027614234000410 1.405719386328881 4.043000000000000
-0.027709855884161 1.421705617644963 4.057000000000000
-0.027860118844341 1.440593971815855 4.079000000000000
-0.027921590055324 1.454976030869916 4.088000000000000
-0.027853288709788 1.462592985206338 4.078000000000000
-0.027716686018715 1.466541177244399 4.058000000000000
-0.017367666143023 -0.733252073250275 4.238000000000000
-0.017281606447647 -0.718061652132447 4.217000000000001
-0.017199644833003 -0.703153872716410 4.197000000000000
-0.017232429478861 -0.692970023514194 4.205000000000000
-0.017203742913735 -0.680311483586654 4.198000000000000
-0.017257017963254 -0.670877622051819 4.211000000000000
-0.017396352708148 -0.664660578920540 4.245000000000000
-0.017236527559593 -0.623973493090993 4.206000000000000
-0.017224233317396 -0.612009767434212 4.203000000000000
-0.017400450788881 -0.548452042555757 4.246000000000000
-0.017306194932040 -0.533907675273921 4.223000000000000
-0.017158664025681 -0.506406614668691 4.187000000000000
-0.017101290895431 -0.493276902923105 4.173000000000000
-0.017158664025681 -0.483456981084503 4.187000000000000
-0.017244723721057 -0.474349402279068 4.208000000000000
-0.017281606447647 -0.463806898592985 4.217000000000001
-0.017166860187146 -0.449247019617086 4.189000000000000
-0.017039819684448 -0.434527101615299 4.158000000000000
-0.016970152312001 -0.421401785763225 4.141000000000000
-0.017015231200055 -0.411142285535756 4.152000000000000
-0.016982446554197 -0.398993132101533 4.144000000000000
-0.016933269585411 -0.386513661801220 4.132000000000000
-0.016875896455160 -0.373918363543682 4.118000000000000
-0.016929171504679 -0.363777431855429 4.131000000000000
-0.016679188580015 -0.347251579945517 4.070000000000000
-0.016548049996585 -0.333454876317535 4.038000000000000
-0.016605423126836 -0.323506147125404 4.052000000000000
-0.016769346356123 -0.315485231003656 4.092000000000001
-0.016875896455160 -0.306204063734975 4.118000000000000
-0.016502971108531 -0.288401210241007 4.027000000000000
-0.016228399699474 -0.261897469346590 3.960000000000000
-0.016539853835121 -0.255862795503253 4.036000000000000
-0.016564442319514 -0.245165733955263 4.042000000000000
-0.016322655556314 -0.165176948416766 3.983000000000000
-0.016216105457278 -0.153254232828884 3.957000000000000
