# This PCD file was generated using the MATLAB® pcwrite function
# from Computer Vision Toolbox®.
# .PCD v.7 - Point Cloud Data file format
VERSION .7
FIELDS x y z
SIZE 8 8 8
TYPE F F F
COUNT 1 1 1
WIDTH 867
HEIGHT 1
VIEWPOINT 0 0 0 1 0 0 0
POINTS 867
DATA ascii
-0.299332012840653 0.823116677537642 3.714000000000000
-0.287323270268424 0.819405019649973 3.565000000000000
-0.297639505498258 0.858946421622096 3.693000000000000
-0.295544020217198 0.872998569416201 3.667000000000000
-0.292803770234274 0.874860761991416 3.633000000000000
-0.297236527559593 0.908319814955904 3.688000000000000
-0.276281674748993 0.900652543534145 3.428000000000000
-0.284180042346834 0.936063778824071 3.526000000000000
-0.285308380575097 0.949482084815531 3.540000000000000
-0.286436718803360 0.962977127102711 3.554000000000000
-0.286920292329759 0.974359334148200 3.560000000000000
-0.282648726179906 0.979075864790647 3.507000000000000
-0.284905402636432 0.996580795097647 3.535000000000000
-0.285308380575097 1.007692046282949 3.540000000000000
-0.286033740864695 1.019980300696656 3.549000000000000
-0.284583020285500 1.024484107365040 3.531000000000000
-0.285791954101496 1.038554310113296 3.546000000000000
-0.285227784987364 1.046203066163130 3.539000000000000
-0.285469571750564 1.056797070865969 3.542000000000000
-0.285066593811898 1.064998700964137 3.537000000000000
-0.284260637934567 1.071653711022073 3.527000000000000
-0.284421829110033 1.081932910552885 3.529000000000000
-0.284180042346834 1.090676452371426 3.526000000000000
-0.284663615873233 1.102212132008353 3.532000000000000
-0.285308380575097 1.114410308973214 3.540000000000000
-0.286436718803360 1.128557609774012 3.554000000000000
-0.286920292329759 1.140219356182479 3.560000000000000
-0.287081483505225 1.150621881902841 3.562000000000000
-0.286678505566560 1.158754997451259 3.557000000000000
-0.286517314391094 1.167846231425705 3.555000000000000
-0.286114336452428 1.175932757080294 3.550000000000000
-0.286114336452428 1.185661823144763 3.550000000000000
-0.286114336452428 1.195390889209232 3.550000000000000
-0.279102520319650 1.232529842197289 3.463000000000000
-0.282729321767639 1.258159929402608 3.508000000000000
-0.282890512943105 1.268496681155210 3.510000000000000
-0.284502424697767 1.285398836897003 3.530000000000000
-0.282487535004440 1.285901185575769 3.505000000000000
-0.282487535004440 1.295506925450689 3.505000000000000
-0.280875623249778 1.297665517449285 3.485000000000000
-0.282729321767639 1.315843699127947 3.508000000000000
-0.282245748241240 1.323190629402060 3.502000000000000
-0.281762174714842 1.330504672692293 3.496000000000000
-0.280956218837511 1.336252550111542 3.486000000000000
-0.278135373266853 1.332294108296838 3.451000000000000
-0.278618946793252 1.344084662058835 3.457000000000000
-0.278296564442320 1.351992688127251 3.453000000000000
-0.277248821801790 1.356330251092122 3.440000000000000
-0.278538351205519 1.372110215245309 3.456000000000000
-0.275798101222594 1.367989717336374 3.422000000000000
-0.275153336520729 1.374147958540476 3.414000000000000
-0.275798101222594 1.386746260475875 3.422000000000000
-0.276523461512192 1.399796396682799 3.431000000000000
-0.275475718871662 1.403859901448672 3.418000000000000
-0.275798101222594 1.414881075185126 3.422000000000000
-0.276120483573526 1.425924173577501 3.426000000000000
-0.275153336520729 1.430286040023459 3.414000000000000
-0.274347380643399 1.435425508240930 3.404000000000000
-0.274589167406598 1.539399363088745 3.407000000000000
-0.274589167406598 1.604759502968050 3.407000000000000
-0.274266785055666 1.612201630098168 3.403000000000000
-0.274427976231132 1.622480829628980 3.405000000000000
-0.274750358582064 1.633729471670604 3.409000000000000
-0.275233932108463 1.645963999714979 3.415000000000000
-0.274992145345263 1.653868923444582 3.412000000000000
-0.274830954169797 1.662244865519642 3.410000000000000
-0.274911549757530 1.672080452524898 3.411000000000000
-0.275475718871662 1.684879178702389 3.418000000000000
-0.276201079161260 1.698707640194472 3.427000000000000
-0.276684652687658 1.711090159666307 3.433000000000000
-0.276684652687658 1.720498577637947 3.433000000000000
-0.276684652687658 1.729906995609588 3.433000000000000
-0.276684652687658 1.739315413581228 3.433000000000000
-0.276926439450857 1.750251991032815 3.436000000000000
-0.277007035038590 1.760180757825732 3.437000000000000
-0.276926439450857 1.769085270468036 3.436000000000000
-0.275153336520729 1.767114528921362 3.414000000000000
-0.278457755617786 1.816742599058336 3.455000000000000
-0.280875623249778 1.842068426851126 3.485000000000000
-0.281600983539376 1.856401155429367 3.494000000000000
-0.281842770302575 1.867578904096074 3.497000000000000
-0.281681579127109 1.876089134688642 3.495000000000000
-0.281520387951643 1.884588402953251 3.493000000000000
-0.281117410012977 1.891449888458313 3.488000000000000
-0.280956218837511 1.899919010321032 3.486000000000000
-0.280633836486579 1.907281660573439 3.482000000000000
-0.280392049723380 1.915172881393093 3.479000000000000
-0.280069667372447 1.922494422915650 3.475000000000000
-0.279586093846049 1.928682087007997 3.469000000000000
-0.279586093846049 1.938189165931277 3.469000000000000
-0.279263711495116 1.945450414650055 3.465000000000000
-0.279505498258316 1.956639125644722 3.468000000000000
-0.279263711495116 1.964442647840695 3.465000000000000
-0.278780137968718 1.970520688653442 3.459000000000000
-0.278135373266853 1.975421002724138 3.451000000000000
-0.277812990915921 1.982578109327297 3.447000000000000
-0.277974182091387 1.993180697532928 3.449000000000000
-0.277893586503654 2.002052323191353 3.448000000000000
-0.277651799740455 2.009751703271707 3.445000000000000
-0.277410012977256 2.017434639860121 3.442000000000000
-0.277571204152722 2.028045449811722 3.444000000000000
-0.277812990915921 2.039258826044299 3.447000000000000
-0.278054777679120 2.050488645768815 3.450000000000000
-0.278054777679120 2.059943653634285 3.450000000000000
-0.278135373266853 2.069998487198741 3.451000000000000
-0.277974182091387 2.078251103084251 3.449000000000000
-0.276765248275391 2.078623767423250 3.434000000000000
-0.276684652687658 2.115652132446846 3.433000000000000
-0.280875623249778 2.157249058610086 3.485000000000000
-0.282971108530838 2.182965496072746 3.511000000000000
-0.285872549689229 2.215069353167839 3.547000000000000
-0.287242674680691 2.235453133307389 3.564000000000000
-0.292159005532409 2.313452694814270 3.625000000000000
-0.292239601120142 2.324028238956825 3.626000000000000
-0.292320196707875 2.334609264263359 3.627000000000000
-0.292561983471074 2.346488601919503 3.630000000000000
-0.291836623181477 2.350594508969925 3.621000000000000
-0.291272454067345 2.355954879058117 3.614000000000000
-0.307405231883068 0.117589778725410 3.948000000000000
-0.308884639027389 0.129027575735983 3.967000000000000
-0.300008196161464 0.188676474296081 3.853000000000000
-0.305147189399631 0.202648750568671 3.919000000000000
-0.304057099924869 0.212626793025767 3.905000000000000
-0.304446417594427 0.223614718021519 3.910000000000000
-0.304524281128338 0.234390324649342 3.911000000000000
-0.305147189399631 0.245610113843776 3.919000000000000
-0.305147189399631 0.256350454662552 3.919000000000000
-0.305069325865720 0.267022642688401 3.918000000000000
-0.303901372857045 0.276696842301431 3.903000000000000
-0.303200601051841 0.286730628196204 3.894000000000000
-0.303823509323134 0.351482205401139 3.902000000000000
-0.301799057441432 0.402252670697149 3.876000000000000
-0.306548733010040 0.419372943878362 3.937000000000000
-0.306393005942217 0.429944092127404 3.935000000000000
-0.306003688272659 0.440168271734185 3.930000000000000
-0.306315142408305 0.451397729701879 3.934000000000000
-0.302655556314459 0.488615392204688 3.887000000000000
-0.295024929991121 0.497064431082585 3.789000000000000
-0.296893654805000 0.510662738499148 3.813000000000000
-0.305925824738747 0.580036975932209 3.929000000000000
-0.288328666074722 0.668453171675537 3.703000000000000
-0.291365343897275 0.685748579008238 3.742000000000000
-0.295725701796325 0.716828445048590 3.798000000000000
-0.294402021719828 0.744706313752789 3.781000000000000
-0.287627894269517 0.778189330366196 3.694000000000000
-0.287472167201694 0.838477376495672 3.692000000000000
-0.276804863055802 0.817106548346607 3.555000000000000
-0.278751451403593 0.832664010129191 3.580000000000000
-0.283189672836555 0.855889006429405 3.637000000000000
-0.283345399904378 0.866332640879617 3.639000000000000
-0.281087357420941 0.869322144450595 3.610000000000000
-0.286927122464313 0.897481898455956 3.685000000000000
-0.276726999521891 0.953237098710282 3.554000000000000
-0.274391093504542 0.954848451297117 3.524000000000000
-0.275636910047128 0.968885405304670 3.540000000000000
-0.274780411174100 0.975546258283409 3.529000000000000
-0.273923912301072 0.982146818458368 3.518000000000000
-0.273301004029779 0.989532840393986 3.510000000000000
-0.272366641622840 0.995736377937219 3.498000000000000
-0.274001775834984 1.011358320132863 3.519000000000000
-0.275325455911481 1.025934807035622 3.536000000000000
-0.275403319445393 1.035918385468338 3.537000000000000
-0.275014001775835 1.044133718476456 3.532000000000000
-0.275247592377570 1.054708539105364 3.535000000000000
-0.275169728843658 1.064095394177907 3.534000000000000
-0.274702547640189 1.071957553866139 3.528000000000000
-0.274780411174100 1.081932910552885 3.529000000000000
-0.274468957038454 1.090367128363379 3.525000000000000
-0.274624684106277 1.100651809058172 3.527000000000000
-0.275247592377570 1.112836283113082 3.535000000000000
-0.276571272454067 1.127922518265979 3.552000000000000
-0.277349907793184 1.140859928854491 3.562000000000000
-0.277427771327095 1.150944908820837 3.563000000000000
-0.277194180725360 1.159732299951218 3.560000000000000
-0.276960590123625 1.168503247589658 3.557000000000000
-0.276649135987979 1.176926503072192 3.553000000000000
-0.276493408920156 1.185995812390719 3.551000000000000
-0.276337681852333 1.195054159381286 3.549000000000000
-0.275014001775835 1.199009487894849 3.532000000000000
-0.271120825080254 1.220206793354637 3.482000000000000
-0.273768185233249 1.241757392719918 3.516000000000000
-0.277661361928830 1.278961889466847 3.566000000000000
-0.276649135987979 1.284036668987026 3.553000000000000
-0.272989549894133 1.276659581348695 3.506000000000000
-0.271821596885459 1.280764918358062 3.491000000000000
-0.271276552148077 1.287744972402339 3.484000000000000
-0.272678095758486 1.303995593144160 3.502000000000000
-0.271432279215901 1.307591543660212 3.486000000000000
-0.271977323953282 1.319790082381894 3.493000000000000
-0.271354415681989 1.326318302154645 3.485000000000000
-0.269407827334198 1.326286237345363 3.460000000000000
-0.269563554402022 1.336540771638265 3.462000000000000
-0.269719281469845 1.346806268259127 3.464000000000000
-0.269407827334198 1.354733478401473 3.460000000000000
-0.269329963800287 1.363821610037107 3.459000000000000
-0.267461238986408 1.363772739979062 3.435000000000000
-0.265981831842087 1.365591138054077 3.416000000000000
-0.265358923570794 1.371732935766239 3.408000000000000
-0.267227648384673 1.390798704252835 3.432000000000000
-0.267461238986408 1.401428336521544 3.435000000000000
-0.266293285977734 1.404681352532023 3.420000000000000
-0.266838330715115 1.416948405803456 3.427000000000000
-0.267305511918585 1.428837620517093 3.433000000000000
-0.267850556655966 1.441178669502255 3.440000000000000
-0.266137558909911 1.441329138415834 3.418000000000000
-0.265203196502971 1.445603306238113 3.406000000000000
-0.265125332969059 1.538495694545694 3.405000000000000
-0.264969605901236 1.546918226514582 3.403000000000000
-0.265514650638618 1.596827173418547 3.410000000000000
-0.265281060036883 1.604759502968050 3.407000000000000
-0.265281060036883 1.614096665807951 3.407000000000000
-0.265358923570794 1.623910328157287 3.408000000000000
-0.265748241240353 1.635646432036307 3.413000000000000
-0.266215422443822 1.647891922408643 3.419000000000000
-0.266059695375999 1.656292529721612 3.417000000000000
-0.266059695375999 1.665657098381412 3.417000000000000
-0.266215422443822 1.676002071879984 3.419000000000000
-0.266604740113380 1.687836836710644 3.424000000000000
-0.266916194249027 1.699203323777837 3.428000000000000
-0.267305511918585 1.711090159666307 3.433000000000000
-0.267383375452496 1.720999742385293 3.434000000000000
-0.267461238986408 1.730914806268259 3.435000000000000
-0.267616966054231 1.741341997226531 3.437000000000000
-0.268239874325524 1.754836469472657 3.445000000000000
-0.268629191995082 1.766838409804706 3.450000000000000
-0.268629191995082 1.776293417670176 3.450000000000000
-0.266137558909911 1.769184961878504 3.418000000000000
-0.269096373198552 1.817268429043591 3.456000000000000
-0.271743733351547 1.844711279687354 3.490000000000000
-0.272366641622840 1.858526400026310 3.498000000000000
-0.272600232224575 1.869715111020976 3.501000000000000
-0.272366641622840 1.877699511628289 3.498000000000000
-0.272288778088928 1.886746534534073 3.497000000000000
-0.271821596885459 1.893076708889900 3.491000000000000
-0.271432279215901 1.899919010321032 3.486000000000000
-0.271042961546342 1.906733905932264 3.481000000000000
-0.270809370944608 1.914622386169927 3.478000000000000
-0.270497916808961 1.921941187110495 3.474000000000000
-0.270108599139403 1.928682087007997 3.469000000000000
-0.270030735605491 1.937630448962141 3.468000000000000
-0.269797145003757 1.945450414650055 3.465000000000000
-0.269952872071580 1.956074927511606 3.467000000000000
-0.269719281469845 1.963875709125590 3.464000000000000
-0.269329963800287 1.970520688653442 3.459000000000000
-0.268940646130729 1.977138262361395 3.454000000000000
-0.268707055528994 1.984878751171599 3.451000000000000
-0.268784919062906 1.994914400662124 3.452000000000000
-0.268551328461171 2.002632964816408 3.449000000000000
-0.268395601393348 2.010918467685797 3.447000000000000
-0.268162010791613 2.018606885438191 3.444000000000000
-0.268162010791613 2.028045449811722 3.444000000000000
-0.268317737859436 2.038667222091283 3.446000000000000
-0.268473464927259 2.049299956698804 3.448000000000000
-0.268707055528994 2.060540738751281 3.451000000000000
-0.268784919062906 2.070598312897727 3.452000000000000
-0.268862782596817 2.080661368208153 3.453000000000000
-0.267616966054231 2.080439688012146 3.437000000000000
-0.264891742367325 2.068577407738307 3.402000000000000
-0.266526876579469 2.109489440537593 3.423000000000000
-0.271977323953282 2.162201136793409 3.493000000000000
-0.274702547640189 2.193535252106137 3.528000000000000
-0.277038453657537 2.221938753473688 3.558000000000000
-0.280308722081825 2.258033467987262 3.600000000000000
-0.281943856293969 2.310899919426889 3.621000000000000
-0.282333173963527 2.324028238956825 3.626000000000000
-0.282177446895704 2.332678239230883 3.624000000000000
-0.281788129226146 2.339378030398535 3.619000000000000
-0.281710265692234 2.348647040445509 3.618000000000000
-0.280152995014002 2.345524530949392 3.598000000000000
-0.293688955672427 0.095002307570036 3.909000000000000
-0.291510142749812 0.179365171587838 3.880000000000000
-0.292261457550714 0.190488316898977 3.890000000000000
-0.292862509391435 0.201562855247940 3.898000000000000
-0.293914350112697 0.213007942206607 3.912000000000000
-0.294515401953418 0.224186622671190 3.920000000000000
-0.294815927873779 0.235169428259785 3.924000000000000
-0.295116453794140 0.246174158504300 3.928000000000000
-0.294590533433509 0.256481279084426 3.921000000000000
-0.293989481592787 0.266681878723766 3.913000000000000
-0.293012772351615 0.276484162176680 3.900000000000000
-0.294590533433509 0.353193676929233 3.921000000000000
-0.295116453794140 0.429179261467965 3.928000000000000
-0.295792637114951 0.440952286467554 3.937000000000000
-0.295191585274230 0.450824016268095 3.929000000000000
-0.291960931630353 0.456539982350652 3.886000000000000
-0.291510142749812 0.466468540859337 3.880000000000000
-0.291059353869271 0.476364212384142 3.874000000000000
-0.286401202103681 0.552317205921850 3.812000000000000
-0.288730277986476 0.567340824257439 3.843000000000000
-0.279864763335838 0.672424538074906 3.725000000000000
-0.279263711495116 0.681167148095569 3.717000000000000
-0.283921863260706 0.702885756099165 3.779000000000000
-0.289030803906837 0.747162664503434 3.847000000000000
-0.287227648384673 0.752978639903970 3.823000000000000
-0.277986476333584 0.830154075519477 3.700000000000000
-0.269045830202855 0.832896597841518 3.581000000000000
-0.269797145003757 0.845063904890843 3.591000000000000
-0.271074380165289 0.858952505714113 3.608000000000000
-0.274154770848986 0.878713713324161 3.649000000000000
-0.268369646882044 0.879750102771825 3.572000000000000
-0.270323065364388 0.896014272951004 3.598000000000000
-0.265063861758077 0.936594728216484 3.528000000000000
-0.266566491359880 0.951627807041103 3.548000000000000
-0.267392937640872 0.964331906403644 3.559000000000000
-0.264537941397446 0.963685172903318 3.521000000000000
-0.264838467317806 0.974440510186743 3.525000000000000
-0.264462809917355 0.982705173670681 3.520000000000000
-0.264688204357626 0.993197776839890 3.523000000000000
-0.263786626596544 0.999436941948992 3.511000000000000
-0.265289256198347 1.014807112358380 3.531000000000000
-0.265740045078888 1.026224946969738 3.537000000000000
-0.265664913598798 1.035625504952232 3.536000000000000
-0.264237415477085 1.039699402005010 3.517000000000000
-0.264012021036814 1.048442943823550 3.514000000000000
-0.264838467317806 1.061385473819220 3.525000000000000
-0.264988730277987 1.071653711022073 3.527000000000000
-0.264838467317806 1.080706576848659 3.525000000000000
-0.264537941397446 1.089129832331194 3.521000000000000
-0.264237415477085 1.097531163157808 3.517000000000000
-0.264913598797896 1.110003036564845 3.526000000000000
-0.266190833959429 1.125064606479832 3.543000000000000
-0.267543200601052 1.140539642518485 3.561000000000000
-0.267843726521412 1.151590962656830 3.565000000000000
-0.267843726521412 1.161361137451149 3.565000000000000
-0.267693463561232 1.170474296081516 3.563000000000000
-0.267392937640872 1.178913995055990 3.559000000000000
-0.267092411720511 1.187331769374544 3.555000000000000
-0.266867017280240 1.196064348865125 3.552000000000000
-0.266040570999249 1.202064721584275 3.541000000000000
-0.257175056348610 1.190150249667019 3.423000000000000
-0.262359128474831 1.223711120733599 3.492000000000000
-0.264012021036814 1.241051046080146 3.514000000000000
-0.265214124718257 1.256376073622995 3.530000000000000
-0.265514650638618 1.267484945983129 3.534000000000000
-0.268519909842224 1.291625965370006 3.574000000000000
-0.267317806160781 1.295594635036696 3.558000000000000
-0.262509391435011 1.281865547047571 3.494000000000000
-0.262133734034560 1.289593056461470 3.489000000000000
-0.261908339594290 1.298037874843102 3.486000000000000
-0.263260706235913 1.314343307224722 3.504000000000000
-0.263335837716003 1.324324145075448 3.505000000000000
-0.262208865514651 1.328221197853576 3.490000000000000
-0.262359128474831 1.338552468442198 3.492000000000000
-0.264387678437265 1.358546208952933 3.519000000000000
-0.261307287753569 1.352249480659713 3.478000000000000
-0.261157024793388 1.360998141885410 3.476000000000000
-0.259804658151766 1.363427327987371 3.458000000000000
-0.257550713749061 1.360993581556979 3.428000000000000
-0.256198347107438 1.363192558771781 3.410000000000000
-0.256799398948159 1.375757973723300 3.418000000000000
-0.256949661908340 1.385935771720482 3.420000000000000
-0.256649135987979 1.393676622287509 3.416000000000000
-0.257099924868520 1.405502803615376 3.422000000000000
-0.257024793388430 1.414467609061460 3.421000000000000
-0.257550713749061 1.426756586988813 3.428000000000000
-0.256949661908340 1.432799723749335 3.420000000000000
-0.258076634109692 1.448497832199646 3.435000000000000
-0.255897821187077 1.445603306238113 3.406000000000000
-0.255897821187077 1.557616373333041 3.406000000000000
-0.255747558226897 1.575359624649890 3.404000000000000
-0.257250187828700 1.593999309373338 3.424000000000000
-0.256724267468069 1.600105117762808 3.417000000000000
-0.256498873027799 1.608056631386241 3.414000000000000
-0.256423741547709 1.616939219372626 3.413000000000000
-0.256423741547709 1.626292825704466 3.413000000000000
-0.256799398948159 1.638042632493436 3.418000000000000
-0.257175056348610 1.649819845102306 3.423000000000000
-0.257250187828700 1.659685578509452 3.424000000000000
-0.257325319308790 1.669556793080579 3.425000000000000
-0.257475582268971 1.679923691235071 3.427000000000000
-0.257625845229151 1.690301551717523 3.429000000000000
-0.257776108189331 1.700690374527934 3.431000000000000
-0.258001502629602 1.711588583831662 3.434000000000000
-0.258302028549962 1.723004401374676 3.438000000000000
-0.258527422990233 1.733938238244273 3.441000000000000
-0.258978211870774 1.746408456339788 3.447000000000000
-0.260030052592036 1.762986653365709 3.461000000000000
-0.261232156273479 1.780665840837960 3.477000000000000
-0.261382419233659 1.791224579731752 3.479000000000000
-0.257926371149512 1.776949085467790 3.433000000000000
-0.260030052592036 1.819897578969870 3.461000000000000
-0.262283996994741 1.845239850254600 3.491000000000000
-0.262885048835462 1.859057711175545 3.499000000000000
-0.263110443275733 1.870249162752202 3.502000000000000
-0.263410969196093 1.881993850134014 3.506000000000000
-0.263410969196093 1.891602330590924 3.506000000000000
-0.263035311795642 1.898499443661856 3.501000000000000
-0.262359128474831 1.903189094676145 3.492000000000000
-0.261908339594290 1.909472679138142 3.486000000000000
-0.261307287753569 1.914622386169927 3.478000000000000
-0.261006761833208 1.921941187110495 3.474000000000000
-0.260631104432757 1.928682087007997 3.469000000000000
-0.260631104432757 1.938189165931277 3.469000000000000
-0.260330578512397 1.945450414650055 3.465000000000000
-0.260405709992487 1.955510729378491 3.466000000000000
-0.260105184072126 1.962741831695379 3.462000000000000
-0.259579263711495 1.968241971465060 3.455000000000000
-0.259278737791135 1.975421002724138 3.451000000000000
-0.259353869271225 1.985453911632674 3.452000000000000
-0.259278737791135 1.994336499619059 3.451000000000000
-0.259053343350864 2.002052323191353 3.448000000000000
-0.258827948910594 2.009751703271707 3.445000000000000
-0.258903080390684 2.019779131016262 3.446000000000000
-0.258677685950413 2.027456586440696 3.443000000000000
-0.258602554470323 2.036300806279221 3.442000000000000
-0.258827948910594 2.047516923093788 3.445000000000000
-0.259278737791135 2.060540738751281 3.451000000000000
-0.259654395191585 2.072997615693668 3.456000000000000
-0.259504132231405 2.081263934489128 3.454000000000000
-0.258452291510143 2.082255608601042 3.440000000000000
-0.255522163786627 2.067969360293352 3.401000000000000
-0.263786626596544 2.173343312705886 3.511000000000000
-0.265815176558978 2.199752755655191 3.538000000000000
-0.267843726521412 2.226310190031955 3.565000000000000
-0.270473328324568 2.258033467987262 3.600000000000000
-0.267768595041322 2.245220567519718 3.564000000000000
-0.272727272727273 2.306695351424828 3.630000000000000
-0.272577009767092 2.315367276354806 3.628000000000000
-0.272201352366642 2.322105435670319 3.623000000000000
-0.271900826446281 2.329459864176756 3.619000000000000
-0.271299774605560 2.334206705656013 3.611000000000000
-0.271149511645379 2.342804634872261 3.609000000000000
-0.287570521139266 0.107419018542778 3.972000000000000
-0.283660952120757 0.191859441030897 3.918000000000000
-0.283154156136876 0.202235076160773 3.911000000000000
-0.283588552694488 0.213280191621493 3.917000000000000
-0.284095348678369 0.224415384531059 3.924000000000000
-0.284240147530906 0.235289290353699 3.926000000000000
-0.284529745235981 0.246299501762194 3.930000000000000
-0.284384946383444 0.256939164560986 3.928000000000000
-0.283950549825832 0.267295253860110 3.922000000000000
-0.283154156136876 0.277263989300768 3.911000000000000
-0.285615736630012 0.355355535701562 3.945000000000000
-0.283950549825832 0.364032316942826 3.922000000000000
-0.278810190560754 0.547413899135620 3.851000000000000
-0.281995765316577 0.585692133981572 3.895000000000000
-0.269398265145823 0.671702471456838 3.721000000000000
-0.273018236459258 0.691063038866934 3.771000000000000
-0.273525032443139 0.702699758280668 3.778000000000000
-0.268963868588211 0.782613254550736 3.715000000000000
-0.270991052523735 0.798769818518660 3.743000000000000
-0.260058739157161 0.786234210136865 3.592000000000000
-0.264330305307015 0.809154278322545 3.651000000000000
-0.268529472030599 0.852503006418443 3.709000000000000
-0.259262345468206 0.852524646053836 3.581000000000000
-0.259913940304624 0.864505955284664 3.590000000000000
-0.262592719076566 0.893296086997035 3.627000000000000
-0.248619629806707 0.902228948219444 3.434000000000000
-0.253035994809098 0.927834063241670 3.495000000000000
-0.252818796530292 0.936607751462100 3.492000000000000
-0.258972747763131 0.969209111887000 3.577000000000000
-0.255859572433577 0.967243226651612 3.534000000000000
-0.254628782187009 0.972229013993412 3.517000000000000
-0.254845980465815 0.982705173670681 3.520000000000000
-0.256511167269995 0.998836140602818 3.543000000000000
-0.256293968991189 1.007692046282949 3.540000000000000
-0.256076770712383 1.016531508471139 3.537000000000000
-0.256873164401339 1.029416486245019 3.548000000000000
-0.256366368417458 1.037089907532764 3.541000000000000
-0.254701181613278 1.039995023103106 3.518000000000000
-0.254266785055666 1.047846220463377 3.512000000000000
-0.254121986203128 1.056868939888075 3.510000000000000
-0.254918379892084 1.069830653957674 3.521000000000000
-0.254845980465815 1.079173659718378 3.520000000000000
-0.254773581039547 1.088511184315101 3.519000000000000
-0.254628782187009 1.097531163157808 3.517000000000000
-0.254990779318353 1.108743815876740 3.522000000000000
-0.256076770712383 1.123159331955734 3.537000000000000
-0.257235161532682 1.137977351830435 3.553000000000000
-0.258103954647907 1.151590962656830 3.565000000000000
-0.258393552352981 1.162664207451094 3.569000000000000
-0.258103954647907 1.171131312245468 3.565000000000000
-0.257959155795369 1.180238989711855 3.563000000000000
-0.257741957516563 1.189001715604326 3.560000000000000
-0.257669558090294 1.198421457660749 3.559000000000000
-0.256873164401339 1.204441014453829 3.548000000000000
-0.248836828085513 1.195017939849707 3.437000000000000
-0.253470391366710 1.226865015374665 3.501000000000000
-0.254701181613278 1.242463739359690 3.518000000000000
-0.254990779318353 1.253528762407985 3.522000000000000
-0.255642374154771 1.266408982531530 3.531000000000000
-0.257379960385220 1.284759459118738 3.555000000000000
-0.255787173007308 1.286491243840542 3.533000000000000
-0.255352776449696 1.293972462632164 3.527000000000000
-0.253035994809098 1.291810757332427 3.495000000000000
-0.252673997677754 1.299527304418366 3.490000000000000
-0.253687589645516 1.314343307224722 3.504000000000000
-0.253542790792979 1.323190629402060 3.502000000000000
-0.252312000546411 1.326318302154645 3.485000000000000
-0.252022402841336 1.334335951502661 3.481000000000000
-0.252022402841336 1.343875917409821 3.481000000000000
-0.252312000546411 1.354971086860005 3.485000000000000
-0.252963595382829 1.368045888304840 3.494000000000000
-0.251226009152380 1.368158712584204 3.470000000000000
-0.249054026364319 1.365757853137692 3.440000000000000
-0.247968034970289 1.369189006977522 3.425000000000000
-0.247823236117752 1.377770492701830 3.423000000000000
-0.247533638412677 1.385530527342786 3.419000000000000
-0.248257632675364 1.398980426763428 3.429000000000000
-0.246809644149990 1.400163371573587 3.409000000000000
-0.247388839560139 1.412813744566796 3.417000000000000
-0.247171641281333 1.420929693109629 3.414000000000000
-0.247823236117752 1.434056565612273 3.423000000000000
-0.248040434396558 1.444702641372922 3.426000000000000
-0.246882043576258 1.447301020044617 3.410000000000000
-0.246592445871184 1.510944262043487 3.406000000000000
-0.246230448739840 1.546009076807551 3.401000000000000
-0.246809644149990 1.577673607647320 3.409000000000000
-0.248185233249095 1.595861458099242 3.428000000000000
-0.247750836691483 1.602446506580137 3.422000000000000
-0.247316440133871 1.608998668077153 3.416000000000000
-0.247316440133871 1.618360496154963 3.416000000000000
-0.247388839560139 1.628198823742210 3.417000000000000
-0.247678437265214 1.639480352767714 3.421000000000000
-0.247895635544020 1.650301825775721 3.424000000000000
-0.248040434396558 1.660655021020264 3.426000000000000
-0.248257632675364 1.671506640430162 3.429000000000000
-0.248474830954170 1.682374703331999 3.432000000000000
-0.248474830954170 1.691780380721650 3.432000000000000
-0.248692029232976 1.702673108861398 3.435000000000000
-0.249126425790588 1.715077552989153 3.441000000000000
-0.249778020627006 1.729018378342825 3.450000000000000
-0.250429615463425 1.743008534172317 3.459000000000000
-0.251226009152380 1.758061312300280 3.470000000000000
-0.253108394235366 1.780815180631759 3.496000000000000
-0.254845980465815 1.802687305076106 3.520000000000000
-0.254701181613278 1.811304418366284 3.518000000000000
-0.249633221774469 1.784713209057075 3.448000000000000
-0.251081210299843 1.823578388866660 3.468000000000000
-0.253325592514173 1.849468414792565 3.499000000000000
-0.253759989071785 1.862245578070959 3.505000000000000
-0.253832388498053 1.872385369677105 3.506000000000000
-0.254121986203128 1.884141019386877 3.510000000000000
-0.254049586776860 1.893220929276541 3.509000000000000
-0.253832388498053 1.901210811047834 3.506000000000000
-0.252963595382829 1.904279122794516 3.494000000000000
-0.252529198825217 1.910568188420493 3.488000000000000
-0.251805204562530 1.914622386169927 3.478000000000000
-0.251515606857455 1.921941187110495 3.474000000000000
-0.251226009152380 1.929238063395142 3.470000000000000
-0.251081210299843 1.937630448962141 3.468000000000000
-0.251081210299843 1.947134787303431 3.468000000000000
-0.250864012021037 1.954946531245375 3.465000000000000
-0.250646813742231 1.962741831695379 3.462000000000000
-0.249995218905812 1.967102612870869 3.453000000000000
-0.249850420053275 1.975421002724138 3.451000000000000
-0.249995218905812 1.986029072093750 3.453000000000000
-0.249850420053275 1.994336499619059 3.451000000000000
-0.249633221774469 2.002052323191353 3.448000000000000
-0.249633221774469 2.011501849892843 3.448000000000000
-0.249633221774469 2.020951376594333 3.448000000000000
-0.249488422921932 2.029223176553773 3.446000000000000
-0.249126425790588 2.035709202326206 3.441000000000000
-0.249560822348200 2.048705612163799 3.447000000000000
-0.249778020627006 2.059943653634285 3.450000000000000
-0.250140017758350 2.072397789994683 3.455000000000000
-0.249850420053275 2.079456235646202 3.451000000000000
-0.249054026364319 2.082255608601042 3.440000000000000
-0.247895635544020 2.110105709728518 3.424000000000000
-0.256800764975070 2.205348508849339 3.547000000000000
-0.257959155795369 2.225061208158164 3.563000000000000
-0.258321152926713 2.237962059382931 3.568000000000000
-0.262303121371491 2.302247178570841 3.623000000000000
-0.262737517929103 2.316005470201651 3.629000000000000
-0.262303121371491 2.322105435670319 3.623000000000000
-0.261868724813879 2.328172514155106 3.617000000000000
-0.261144730551192 2.331621043284752 3.607000000000000
-0.257741957516563 2.310995982306803 3.560000000000000
-0.276440133870637 0.042063066272754 3.968000000000000
-0.274489447442115 0.052564143321476 3.940000000000000
-0.274001775834984 0.192593971815855 3.933000000000000
-0.273723106345195 0.203165843578542 3.929000000000000
-0.273653438972748 0.213879140334241 3.928000000000000
-0.273583771600301 0.224586955925960 3.927000000000000
-0.273862441090090 0.235588945588485 3.931000000000000
-0.274280445324773 0.246738203164824 3.937000000000000
-0.274001775834984 0.257266225615672 3.933000000000000
-0.273583771600301 0.267636017824745 3.927000000000000
-0.273583771600301 0.278398283299441 3.927000000000000
-0.272260091523803 0.352022670094221 3.908000000000000
-0.267731712314733 0.535744654494828 3.843000000000000
-0.266686701728024 0.544144483482512 3.828000000000000
-0.264875350044396 0.550868315035381 3.802000000000000
-0.260764975070009 0.552577857193754 3.743000000000000
-0.267383375452496 0.587639383259429 3.838000000000000
-0.263203333105662 0.681991920764293 3.778000000000000
-0.264457345809712 0.695644469779602 3.796000000000000
-0.263969674202582 0.704745734284132 3.789000000000000
-0.259441294993511 0.702861803412573 3.724000000000000
-0.255261252646677 0.701578991794698 3.664000000000000
-0.263273000478109 0.744312393459875 3.779000000000000
-0.261740318284270 0.760572003310623 3.757000000000000
-0.254355576804863 0.759124954095252 3.651000000000000
-0.255330920019124 0.772080101730403 3.665000000000000
-0.253380233590602 0.776149032848616 3.637000000000000
-0.261182979304692 0.851422449751429 3.749000000000000
-0.257769278054778 0.850434382245414 3.700000000000000
-0.255888258998702 0.854294667375564 3.673000000000000
-0.252265555631446 0.852123753720340 3.621000000000000
-0.249757530223345 0.853476921559062 3.585000000000000
-0.251011542927396 0.867636478242520 3.603000000000000
-0.252613892493682 0.883112446079049 3.626000000000000
-0.259301960248617 0.916693696113307 3.722000000000000
-0.246065159483642 0.947336362589960 3.532000000000000
-0.241606447647019 0.939674923126675 3.468000000000000
-0.244741479407144 0.961495601365906 3.513000000000000
-0.244880814152039 0.971676139945079 3.515000000000000
-0.245716822621406 0.984659416913776 3.527000000000000
-0.245229151014275 0.992352022275450 3.520000000000000
-0.245995492111195 1.005130117351721 3.531000000000000
-0.248224848029506 1.024003891626426 3.563000000000000
-0.247040502697903 1.028836206376786 3.546000000000000
-0.247946178539717 1.042361756822679 3.559000000000000
-0.247110170070350 1.048568034947901 3.547000000000000
-0.245229151014275 1.050233113904069 3.520000000000000
-0.245577487876511 1.061385473819220 3.525000000000000
-0.245229151014275 1.069526811113608 3.520000000000000
-0.245020148896933 1.078253909440209 3.517000000000000
-0.244811146779592 1.086964564274869 3.514000000000000
-0.244811146779592 1.096594969387699 3.514000000000000
-0.245020148896933 1.107169790016608 3.517000000000000
-0.245786489993853 1.120301420169587 3.528000000000000
-0.247388839560139 1.137336779158422 3.551000000000000
-0.248712519636637 1.153206097246811 3.570000000000000
-0.249130523871320 1.164944579950998 3.576000000000000
-0.248712519636637 1.172773852655350 3.570000000000000
-0.248433850146848 1.181232735703754 3.566000000000000
-0.248294515401953 1.190337672588151 3.564000000000000
-0.248364182774401 1.200441836628426 3.565000000000000
-0.247458506932587 1.205798896093574 3.552000000000000
-0.238610750631787 1.190845633978832 3.425000000000000
-0.244602144662250 1.230369342753627 3.511000000000000
-0.245438153131617 1.244229605959121 3.523000000000000
-0.245716822621406 1.255308331917366 3.527000000000000
-0.245647155248958 1.264615710112200 3.526000000000000
-0.245925824738747 1.275724582472334 3.530000000000000
-0.245647155248958 1.283942294305619 3.526000000000000
-0.245786489993853 1.294339338862001 3.528000000000000
-0.244671812034697 1.298094243133472 3.512000000000000
-0.245020148896933 1.309580954051402 3.517000000000000
-0.244044805682672 1.313968209248916 3.503000000000000
-0.243278464585752 1.319412243824098 3.492000000000000
-0.242442456116385 1.324415406455715 3.480000000000000
-0.241954784509255 1.331269393728452 3.473000000000000
-0.241954784509255 1.340787434979692 3.473000000000000
-0.242233453999044 1.351860679773957 3.477000000000000
-0.242512123488833 1.362955849224141 3.481000000000000
-0.241745782391913 1.368158712584204 3.470000000000000
-0.240631104432757 1.371316169981857 3.454000000000000
-0.241188443412335 1.383980245885016 3.462000000000000
-0.240213100198074 1.387833087594481 3.448000000000000
-0.240282767570521 1.397687858673668 3.449000000000000
-0.238123079024657 1.394492592206881 3.418000000000000
-0.239864763335838 1.414128039990572 3.443000000000000
-0.237983744279762 1.412400278443130 3.416000000000000
-0.237705074789973 1.420097279698316 3.412000000000000
-0.237356737927737 1.427353409009937 3.407000000000000
-0.239864763335838 1.451871335156734 3.443000000000000
-0.238819752749129 1.454940732173884 3.428000000000000
-0.237147735810395 1.528714919180237 3.404000000000000
-0.237844409534868 1.542562202989427 3.414000000000000
-0.237565740045079 1.578136404246806 3.410000000000000
-0.239516426473602 1.600516829914000 3.438000000000000
-0.238959087494024 1.606192728687864 3.430000000000000
-0.238471415886893 1.612295796495344 3.423000000000000
-0.238332081141999 1.620729290792193 3.421000000000000
-0.238332081141999 1.630104821779953 3.421000000000000
-0.238332081141999 1.639480352767714 3.421000000000000
-0.238541083259340 1.650301825775721 3.424000000000000
-0.238819752749129 1.661624463531075 3.428000000000000
-0.239237756983813 1.673943949617141 3.434000000000000
-0.239307424356260 1.683845310590157 3.435000000000000
-0.239446759101154 1.694245095728529 3.437000000000000
-0.239795095963390 1.706142893944958 3.442000000000000
-0.240491769687863 1.720560218808066 3.452000000000000
-0.241745782391913 1.739041673289740 3.470000000000000
-0.242860460351069 1.756613978064382 3.486000000000000
-0.244880814152039 1.780860378309938 3.515000000000000
-0.246274161600984 1.800681253871072 3.535000000000000
-0.246970835325456 1.815490481958749 3.545000000000000
-0.246204494228536 1.819542300883015 3.534000000000000
-0.242651458233727 1.831465838645495 3.483000000000000
-0.244602144662250 1.855811261599513 3.511000000000000
-0.244880814152039 1.867558689563315 3.515000000000000
-0.244532477289803 1.874521576602007 3.510000000000000
-0.244462809917355 1.883604227073661 3.509000000000000
-0.244393142544908 1.892681396381335 3.508000000000000
-0.244323475172461 1.901753084525030 3.507000000000000
-0.243835803565330 1.907549207149630 3.500000000000000
-0.243557134075541 1.914950225549898 3.496000000000000
-0.242930127723516 1.919576843178417 3.487000000000000
-0.242721125606174 1.927473545162050 3.484000000000000
-0.242233453999044 1.933129898105161 3.477000000000000
-0.242094119254149 1.941541467746090 3.475000000000000
-0.241606447647019 1.947134787303431 3.468000000000000
-0.241467112902124 1.955510729378491 3.466000000000000
-0.241188443412335 1.962741831695379 3.462000000000000
-0.240770439177652 1.968811650762156 3.456000000000000
-0.240491769687863 1.975993422603224 3.452000000000000
-0.240422102315416 1.984878751171599 3.451000000000000
-0.240282767570521 1.993180697532928 3.449000000000000
-0.239934430708285 1.999729756691131 3.444000000000000
-0.240073765453179 2.010335085478752 3.446000000000000
-0.240143432825627 2.020365253805298 3.447000000000000
-0.240143432825627 2.029812039924798 3.447000000000000
-0.239934430708285 2.037484014185252 3.444000000000000
-0.240073765453179 2.048111267628793 3.446000000000000
-0.240004098080732 2.056958228049309 3.445000000000000
-0.240352434942968 2.069398661499756 3.450000000000000
-0.240004098080732 2.075840837960349 3.445000000000000
-0.239098422238918 2.077413153697319 3.432000000000000
-0.245438153131617 2.180771429980870 3.523000000000000
-0.247179837442798 2.205970259204244 3.548000000000000
-0.248155180657059 2.224436717221269 3.562000000000000
-0.248224848029506 2.234825901788504 3.563000000000000
-0.248224848029506 2.244590595418843 3.563000000000000
-0.250802540810054 2.277765658315200 3.600000000000000
-0.252056553514104 2.299069912246564 3.618000000000000
-0.252683559866129 2.314729082507961 3.627000000000000
-0.252335223003893 2.321464501241484 3.622000000000000
-0.251917218769210 2.327528839144280 3.616000000000000
-0.251011542927396 2.329035380913491 3.603000000000000
-0.248921521753979 2.319435012579271 3.573000000000000
-0.261449354552285 0.030701117609335 3.906000000000000
-0.262654190287549 0.041596641142713 3.924000000000000
-0.267138856635476 0.053244542130967 3.991000000000000
-0.261248548596407 0.062767012162703 3.903000000000000
-0.267406597909979 0.097092406943538 3.995000000000000
-0.258035653302370 0.167644524591242 3.855000000000000
-0.262654190287549 0.181399209616154 3.924000000000000
-0.264126767297316 0.193230565162818 3.946000000000000
-0.265197732395328 0.204872250511118 3.962000000000000
-0.263859026022813 0.214641438695921 3.942000000000000
-0.263390478792432 0.225044479645697 3.935000000000000
-0.263792090704187 0.236188256058056 3.941000000000000
-0.264059831978690 0.247239576196401 3.945000000000000
-0.263725155385561 0.257724111092231 3.940000000000000
-0.263792090704187 0.268590156925725 3.941000000000000
-0.264260637934567 0.279887044172700 3.948000000000000
-0.257700976709241 0.346798178061093 3.850000000000000
-0.262051772419917 0.535052646580028 3.915000000000000
-0.256897752885732 0.535047614871494 3.838000000000000
-0.253015504405437 0.537321355162982 3.780000000000000
-0.254287275459327 0.550433647769440 3.799000000000000
-0.250070350385903 0.551544449499296 3.736000000000000
-0.254220340140701 0.591923680272743 3.798000000000000
-0.260043712861143 0.616129914548654 3.885000000000000
-0.255358240557339 0.688671036981413 3.815000000000000
-0.253885663547572 0.695094698070082 3.793000000000000
-0.251542927395670 0.698979801910734 3.758000000000000
-0.251609862714295 0.730071342830363 3.759000000000000
-0.255492111194591 0.751796879025230 3.817000000000000
-0.257968717983744 0.769646607433554 3.854000000000000
-0.254555016733830 0.769884303590710 3.803000000000000
-0.251877603988799 0.772099461201581 3.763000000000000
-0.247794549552626 0.830602807452191 3.702000000000000
-0.248330032101632 0.842565294365911 3.710000000000000
-0.250806638890786 0.861237197371234 3.747000000000000
-0.244046171709583 0.848014799142746 3.646000000000000
-0.245251007444847 0.862242870375953 3.664000000000000
-0.244782460214466 0.880640188990534 3.657000000000000
-0.237218769209753 0.940842323355788 3.544000000000000
-0.238423604945017 0.955382820935854 3.562000000000000
-0.233470391366710 0.945094040330405 3.488000000000000
-0.236884092616625 0.968611708862494 3.539000000000000
-0.239159893449901 0.987709487346733 3.573000000000000
-0.236817157297999 0.987730370581497 3.538000000000000
-0.237821187077385 1.001655322484283 3.553000000000000
-0.238490540263643 1.014239197996086 3.563000000000000
-0.236683286660747 1.016244109119012 3.536000000000000
-0.236549416023496 1.025354527167389 3.534000000000000
-0.239092958131275 1.046169203532062 3.572000000000000
-0.237017963253876 1.046794308359323 3.541000000000000
-0.236281674748993 1.053216730704932 3.530000000000000
-0.236817157297999 1.065299803226213 3.538000000000000
-0.235411515606857 1.068615282581409 3.517000000000000
-0.235210709650980 1.077334159162040 3.514000000000000
-0.235143774332354 1.086655240266823 3.513000000000000
-0.235344580288232 1.097219098567772 3.516000000000000
-0.235545386244109 1.107799400360660 3.519000000000000
-0.236013933474489 1.119666328661554 3.526000000000000
-0.237084898572502 1.134454202134365 3.542000000000000
-0.238892152175398 1.152883070328815 3.569000000000000
-0.239628440680281 1.166247649950944 3.580000000000000
-0.239427634724404 1.175073409229184 3.577000000000000
-0.238758281538146 1.181563984367720 3.567000000000000
-0.238892152175398 1.192007618817932 3.569000000000000
-0.238825216856772 1.201452026112265 3.568000000000000
-0.237955057714637 1.206817307323383 3.555000000000000
-0.228918789700157 1.189107173199300 3.420000000000000
-0.235344580288232 1.232121506443108 3.516000000000000
-0.236348610067618 1.247054992518211 3.531000000000000
-0.236348610067618 1.256731987524871 3.531000000000000
-0.235880062837238 1.263898401144467 3.524000000000000
-0.236147804111741 1.275001792340621 3.528000000000000
-0.236080868793115 1.284306429953465 3.527000000000000
-0.236683286660747 1.297274348700690 3.536000000000000
-0.235880062837238 1.302529644875386 3.524000000000000
-0.235210709650980 1.308463881869954 3.514000000000000
-0.233938938597090 1.310967425442467 3.495000000000000
-0.233403456048084 1.317523051035118 3.487000000000000
-0.233202650092207 1.325937723014859 3.484000000000000
-0.232734102861826 1.332802672615557 3.477000000000000
-0.232801038180452 1.342717736498523 3.478000000000000
-0.232667167543201 1.351471878888201 3.476000000000000
-0.232734102861826 1.361389683353157 3.477000000000000
-0.231529267126562 1.363821610037107 3.459000000000000
-0.232466361587323 1.378859599984653 3.473000000000000
-0.232466361587323 1.388377641235893 3.473000000000000
-0.232600232224575 1.398700690078545 3.475000000000000
-0.231261525852059 1.400119324939844 3.455000000000000
-0.229855884160918 1.401020351561858 3.434000000000000
-0.228651048425654 1.412400278443130 3.416000000000000
-0.228651048425654 1.421762106520940 3.416000000000000
-0.229588142886415 1.436989196625795 3.430000000000000
-0.230056690116795 1.449341207938918 3.437000000000000
-0.230659107984427 1.462580444303152 3.446000000000000
-0.227713953964893 1.499846352011313 3.402000000000000
-0.228182501195274 1.530960387627917 3.409000000000000
-0.228717983744280 1.543917705804005 3.417000000000000
-0.228517177788402 1.551918549903258 3.414000000000000
-0.229119595656034 1.565390735736641 3.423000000000000
-0.228584113107028 1.571091299748415 3.415000000000000
-0.230659107984427 1.594797081828297 3.446000000000000
-0.230391366709924 1.602378978639904 3.442000000000000
-0.229722013523666 1.607129284214796 3.432000000000000
-0.229387336930538 1.614179869877167 3.427000000000000
-0.229387336930538 1.623571844356867 3.427000000000000
-0.229454272249163 1.633440318346004 3.428000000000000
-0.229387336930538 1.642355793316269 3.427000000000000
-0.229454272249163 1.652229748469385 3.428000000000000
-0.229655078205041 1.663078627297293 3.431000000000000
-0.230056690116795 1.675406335129328 3.437000000000000
-0.230190560754047 1.685806120267700 3.439000000000000
-0.230525237347176 1.697695696738159 3.444000000000000
-0.231060719896182 1.711099729778615 3.452000000000000
-0.232064749675569 1.728036581288402 3.467000000000000
-0.233671197322587 1.749566132984000 3.491000000000000
-0.235344580288232 1.771731137944454 3.516000000000000
-0.237553445802882 1.798086339295013 3.549000000000000
-0.238222798989140 1.812906529710649 3.559000000000000
-0.238222798989140 1.822660261013029 3.559000000000000
-0.237084898572502 1.823661242141381 3.542000000000000
-0.236013933474489 1.863739820108198 3.526000000000000
-0.236147804111741 1.874465734503379 3.528000000000000
-0.235545386244109 1.879328042183038 3.519000000000000
-0.235009903695103 1.884677811700092 3.511000000000000
-0.234675227101974 1.891602330590924 3.506000000000000
-0.234541356464722 1.900126264093443 3.504000000000000
-0.234273615190219 1.907549207149630 3.500000000000000
-0.234139744552968 1.916045734832249 3.498000000000000
-0.233805067959839 1.922879814517411 3.493000000000000
-0.233604262003962 1.930792959992984 3.490000000000000
-0.232934908817704 1.934797827266598 3.480000000000000
-0.232466361587323 1.940424033807819 3.473000000000000
-0.232064749675569 1.946573329752306 3.467000000000000
-0.231797008401066 1.953818134979144 3.463000000000000
-0.231596202445188 1.961607954265168 3.460000000000000
-0.231328461170685 1.968811650762156 3.456000000000000
-0.231194590533434 1.977138262361395 3.454000000000000
-0.230926849258930 1.984303590710523 3.450000000000000
-0.230859913940305 1.993180697532928 3.449000000000000
-0.230458302028550 1.999149115066075 3.443000000000000
-0.230592172665802 2.009751703271707 3.445000000000000
-0.230458302028550 2.018020762649156 3.443000000000000
-0.230726043303053 2.029812039924798 3.447000000000000
-0.230726043303053 2.039258826044299 3.447000000000000
