# This PCD file was generated using the MATLAB® pcwrite function
# from Computer Vision Toolbox®.
# .PCD v.7 - Point Cloud Data file format
VERSION .7
FIELDS x y z
SIZE 8 8 8
TYPE F F F
COUNT 1 1 1
WIDTH 883
HEIGHT 1
VIEWPOINT 0 0 0 1 0 0 0
POINTS 883
DATA ascii
0.194187555494843 1.726851290540059 3.645000000000000
0.193654804999659 1.732075716799219 3.635000000000000
0.193548254900622 1.741079252149986 3.633000000000000
0.193441704801585 1.750071825172794 3.631000000000000
0.193335154702548 1.759053435867641 3.629000000000000
0.193015504405437 1.766074236884945 3.623000000000000
0.193335154702548 1.778944579950998 3.629000000000000
0.193441704801585 1.789876037995429 3.631000000000000
0.193708080049177 1.802305509117916 3.636000000000000
0.193494979851103 1.810276568572102 3.632000000000000
0.193921180247251 1.824239680338517 3.640000000000000
0.194667030940510 1.841270073392785 3.654000000000000
0.194933406188102 1.853817389540843 3.659000000000000
0.194986681237620 1.864354565535537 3.660000000000000
0.195146506386176 1.875921476844823 3.663000000000000
0.194880131138583 1.883385890387683 3.658000000000000
0.211661771736903 2.274224179606781 3.973000000000000
0.211022471142682 2.278210586320111 3.961000000000000
0.210542995697015 2.283864922194877 3.952000000000000
0.209956970152312 2.288308644343713 3.941000000000000
0.209477494706646 2.293858838102859 3.932000000000000
0.209477494706646 2.304634806487505 3.932000000000000
0.209370944607609 2.314233048130101 3.930000000000000
0.209211119459053 2.323228723491721 3.927000000000000
0.209051294310498 2.332207955361400 3.924000000000000
0.209104569360016 2.343559084207122 3.925000000000000
0.208998019260979 2.353116217119867 3.923000000000000
0.208092343419165 2.353623893490021 3.906000000000000
0.216915511235571 0.826512291510225 3.873000000000000
0.216579468615532 0.835829700235142 3.867000000000000
0.216299433098832 0.845333106778555 3.862000000000000
0.216355440202172 0.856138859808269 3.863000000000000
0.216579468615532 0.867623191901032 3.867000000000000
0.216859504132231 0.879356555198062 3.872000000000000
0.217419575165631 0.892266559966674 3.882000000000000
0.217475582268971 0.903138086964148 3.883000000000000
0.217531589372311 0.914015095125601 3.884000000000000
0.215403319445393 0.915612898275078 3.846000000000000
0.200225394440271 0.958869619552408 3.575000000000000
0.200113380233591 0.968125288446254 3.573000000000000
0.199609316303531 0.975454119916905 3.564000000000000
0.198601188443412 0.980245687694239 3.546000000000000
0.197985110306673 0.986892837763027 3.535000000000000
0.197929103203333 0.996298876909500 3.534000000000000
0.197929103203333 1.005984093662130 3.534000000000000
0.197929103203333 1.015669310414760 3.534000000000000
0.197649067686633 1.023903827496807 3.529000000000000
0.197705074789973 1.033868221855593 3.530000000000000
0.197537053479954 1.042655612985974 3.527000000000000
0.197985110306673 1.054708539105364 3.535000000000000
0.198545181340072 1.067407519060748 3.545000000000000
0.199609316303531 1.082895896252528 3.564000000000000
0.205546069257564 1.708521456016399 3.670000000000000
0.205210026637525 1.715769725338873 3.664000000000000
0.204593948500785 1.720630015950187 3.653000000000000
0.203921863260706 1.724956254830275 3.641000000000000
0.203585820640667 1.732075716799219 3.635000000000000
0.203473806433987 1.741079252149986 3.633000000000000
0.203361792227307 1.750071825172794 3.631000000000000
0.203193770917287 1.758568714612235 3.628000000000000
0.203025749607267 1.767049160559736 3.625000000000000
0.203305785123967 1.779434782370384 3.630000000000000
0.203529813537327 1.791354866999556 3.634000000000000
0.203473806433987 1.800818458367819 3.633000000000000
0.203585820640667 1.811771841068169 3.635000000000000
0.204201898777406 1.827246668822591 3.646000000000000
0.204929991120825 1.843789600039464 3.659000000000000
0.204985998224165 1.854324035452169 3.660000000000000
0.204929991120825 1.863845179042221 3.659000000000000
0.204761969810805 1.872336587317682 3.656000000000000
0.222964278396284 2.278803538639465 3.981000000000000
0.222180178949525 2.281661549086564 3.967000000000000
0.221620107916126 2.286754427410205 3.957000000000000
0.221060036882727 2.291792494094046 3.947000000000000
0.220611980056007 2.297942513552178 3.939000000000000
0.220443958745987 2.306979297643648 3.936000000000000
0.220163923229288 2.314821911501126 3.931000000000000
0.219939894815928 2.323228723491721 3.927000000000000
0.219659859299228 2.331019266291389 3.922000000000000
0.219995901919268 2.345350339558108 3.928000000000000
0.220163923229288 2.357914822711751 3.931000000000000
0.228084147257701 0.818004648027055 3.883000000000000
0.227849190629055 0.827792713340605 3.879000000000000
0.227672973157571 0.837774998218622 3.876000000000000
0.227496755686087 0.847740839604698 3.873000000000000
0.227379277371764 0.857911862883202 3.871000000000000
0.227496755686087 0.868969387699172 3.873000000000000
0.227320538214603 0.878902342101369 3.870000000000000
0.227849190629055 0.891577018575665 3.879000000000000
0.227849190629055 0.902207736114841 3.879000000000000
0.227085581585957 0.909779185827902 3.866000000000000
0.210109965166314 0.959406050108801 3.577000000000000
0.210109965166314 0.969209111887000 3.577000000000000
0.209287616966054 0.975180423474729 3.563000000000000
0.208289051294311 0.980245687694239 3.546000000000000
0.207701659722697 0.987172015369184 3.536000000000000
0.207525442251212 0.996016958721354 3.533000000000000
0.207349224779728 1.004845458581584 3.530000000000000
0.207290485622567 1.014232313654127 3.529000000000000
0.207173007308244 1.023323547628574 3.527000000000000
0.207407963936890 1.034161102371700 3.531000000000000
0.207466703094051 1.044133718476456 3.532000000000000
0.207995355508504 1.056498709185883 3.541000000000000
0.208641486237279 1.069515234895282 3.552000000000000
0.211754661566833 1.095353452859249 3.605000000000000
0.215748924253808 1.709918067560827 3.673000000000000
0.215220271839355 1.715769725338873 3.664000000000000
0.214397923639096 1.719216960913819 3.650000000000000
0.213986749538966 1.725903772685168 3.643000000000000
0.213810532067482 1.734458214346398 3.640000000000000
0.213810532067482 1.744433932789967 3.640000000000000
0.213516836281675 1.751999747866457 3.635000000000000
0.213164401338706 1.759053435867641 3.629000000000000
0.212988183867222 1.767536622397132 3.626000000000000
0.213164401338706 1.778944579950998 3.629000000000000
0.213340618810191 1.790368980996804 3.632000000000000
0.213516836281675 1.801809825534550 3.635000000000000
0.213693053753159 1.813267113564236 3.638000000000000
0.214456662796257 1.829752492559320 3.651000000000000
0.215044054367871 1.844797410698136 3.661000000000000
0.215102793525032 1.855337327274820 3.662000000000000
0.214574141110580 1.860788860082327 3.653000000000000
0.213634314595998 1.862606172886874 3.637000000000000
0.234251758759648 2.282810477793064 3.988000000000000
0.233253193087904 2.283962190930866 3.971000000000000
0.232607062359128 2.288488130539401 3.960000000000000
0.232078409944676 2.294115060594268 3.951000000000000
0.231549757530223 2.299692660173315 3.942000000000000
0.231373540058739 2.308737666010754 3.939000000000000
0.231256061744416 2.318355091727279 3.937000000000000
0.231021105115771 2.326778347209813 3.933000000000000
0.230668670172802 2.333990988966417 3.927000000000000
0.230668670172802 2.344753254441113 3.927000000000000
0.230844887644287 2.357314997012765 3.930000000000000
0.238877125879380 0.829286538809381 3.886000000000000
0.238569769824466 0.838855719320555 3.881000000000000
0.238385356191517 0.848835263616581 3.878000000000000
0.237893586503654 0.857690237498835 3.870000000000000
0.238078000136603 0.868969387699172 3.873000000000000
0.238139471347586 0.879810768294755 3.874000000000000
0.238754183457414 0.892726254227348 3.884000000000000
0.238938597090363 0.904068437813454 3.887000000000000
0.220128406529609 0.960478911221587 3.581000000000000
0.219513694419780 0.967583376725881 3.571000000000000
0.218898982309952 0.974633030590376 3.561000000000000
0.218161327778157 0.981074998766738 3.549000000000000
0.217546615668329 0.988009548187653 3.539000000000000
0.217239259613414 0.996298876909500 3.534000000000000
0.216931903558500 1.004560799811448 3.529000000000000
0.216808961136534 1.013657514949875 3.527000000000000
0.216870432347517 1.023613687562691 3.528000000000000
0.217239259613414 1.035039743920019 3.534000000000000
0.217423673246363 1.045611823966937 3.537000000000000
0.217976914145209 1.057990517586314 3.546000000000000
0.219144867153883 1.073429564302275 3.565000000000000
0.225722286729049 1.709452530379351 3.672000000000000
0.225046103408237 1.714364892048475 3.661000000000000
0.224246977665460 1.718274924222908 3.648000000000000
0.223816679188580 1.724956254830275 3.641000000000000
0.223755207977597 1.734458214346398 3.640000000000000
0.223755207977597 1.744433932789967 3.640000000000000
0.223693736766614 1.753927670560120 3.639000000000000
0.223447851922683 1.761961763400076 3.635000000000000
0.223324909500717 1.770948855258903 3.633000000000000
0.223263438289734 1.780415187209156 3.632000000000000
0.223386380711700 1.791354866999556 3.634000000000000
0.223570794344649 1.802801192701282 3.637000000000000
0.223816679188580 1.814762386060303 3.641000000000000
0.224431391298409 1.829752492559320 3.651000000000000
0.224923160986271 1.843789600039464 3.659000000000000
0.225476401885117 1.858377202742774 3.668000000000000
0.223939621610546 1.855694995149170 3.643000000000000
0.244348063656854 2.286262832775168 3.975000000000000
0.243671880336043 2.290799734711663 3.964000000000000
0.243057168226214 2.295856985469434 3.954000000000000
0.242626869749334 2.302609571208542 3.947000000000000
0.242380984905403 2.311082157166896 3.943000000000000
0.242196571272454 2.320121681840356 3.940000000000000
0.242073628850488 2.329736366974891 3.938000000000000
0.241950686428523 2.339340089781466 3.936000000000000
0.242073628850488 2.351321190728063 3.938000000000000
0.242012157639506 2.361513776905663 3.937000000000000
0.238385356191517 2.336752037622710 3.878000000000000
0.249172870705553 0.828219520617398 3.881000000000000
0.248530838057510 0.836694277116688 3.871000000000000
0.248466634792705 0.847084185197568 3.870000000000000
0.248274024998292 0.857025361345735 3.867000000000000
0.248595041322314 0.868745021732815 3.872000000000000
0.248851854381531 0.880264981391448 3.876000000000000
0.249493887029574 0.893185948488021 3.886000000000000
0.249943309883205 0.905463964087413 3.893000000000000
0.229077248821802 0.966770509145322 3.568000000000000
0.227857386790520 0.971348673284258 3.549000000000000
0.227407963936890 0.979139939597573 3.542000000000000
0.227086947612868 0.987451192975340 3.537000000000000
0.227022744348064 0.996862713285793 3.536000000000000
0.226701728024042 1.005130117351721 3.531000000000000
0.226509118229629 1.013944914302001 3.528000000000000
0.226509118229629 1.023613687562691 3.528000000000000
0.226958541083259 1.035332624436125 3.535000000000000
0.227407963936890 1.047089929457420 3.542000000000000
0.228178403114541 1.060377411027006 3.554000000000000
0.227536370466498 1.067106416798671 3.544000000000000
0.236203811215081 1.702628689508504 3.679000000000000
0.235561778567038 1.708055918834924 3.669000000000000
0.234855542654190 1.712960058758078 3.658000000000000
0.234149306741343 1.717803905877452 3.647000000000000
0.233699883887713 1.724482495902830 3.640000000000000
0.233571477358104 1.733505215327527 3.638000000000000
0.233571477358104 1.743475452607115 3.638000000000000
0.233507274093300 1.752963709213288 3.637000000000000
0.233378867563691 1.761961763400076 3.635000000000000
0.233186257769278 1.770461393421507 3.632000000000000
0.233186257769278 1.780415187209156 3.632000000000000
0.233443070828495 1.792340753002307 3.636000000000000
0.233828290417321 1.805279610618111 3.642000000000000
0.233764087152517 1.814762386060303 3.641000000000000
0.233892493682126 1.825743174580554 3.643000000000000
0.234213510006147 1.838246641416771 3.648000000000000
0.233892493682126 1.845711054959631 3.643000000000000
0.256813059217267 2.289679516342090 4.000000000000000
0.255272180861963 2.286837993236243 3.976000000000000
0.254501741684311 2.290799734711663 3.964000000000000
0.253795505771464 2.295276343844379 3.953000000000000
0.253281879653029 2.301442806794451 3.945000000000000
0.253089269858616 2.310496034377861 3.942000000000000
0.253153473123421 2.321888271953432 3.943000000000000
0.253153473123421 2.332694386739968 3.943000000000000
0.253089269858616 2.342906156991499 3.942000000000000
0.252832456799399 2.351321190728063 3.938000000000000
0.252832456799399 2.362113602604649 3.938000000000000
0.260043712861143 0.829073135170985 3.885000000000000
0.259173553719008 0.836910421337075 3.872000000000000
0.259039683081757 0.847084185197568 3.870000000000000
0.258972747763131 0.857468612114469 3.869000000000000
0.259240489037634 0.868969387699172 3.873000000000000
0.259441294993511 0.880264981391448 3.876000000000000
0.260110648179769 0.893185948488021 3.886000000000000
0.261181613277782 0.907557253498353 3.902000000000000
0.239293764087153 0.968667200166627 3.575000000000000
0.237888122396011 0.972717155495141 3.554000000000000
0.237553445802882 0.981074998766738 3.549000000000000
0.237419575165631 0.990242969036905 3.547000000000000
0.237218769209753 0.999118058790965 3.544000000000000
0.236683286660747 1.006553411202403 3.536000000000000
0.236281674748993 1.014519713006254 3.530000000000000
0.236147804111741 1.023613687562691 3.528000000000000
0.236348610067618 1.034161102371700 3.531000000000000
0.236817157297999 1.045907445065034 3.538000000000000
0.237888122396011 1.060377411027006 3.554000000000000
0.244715524895840 1.681964799964921 3.656000000000000
0.245585684037976 1.698000723513645 3.669000000000000
0.245050201488969 1.704331621383117 3.661000000000000
0.244447783621337 1.710150392177283 3.652000000000000
0.243979236390957 1.716861869186540 3.645000000000000
0.243577624479202 1.724008736975384 3.639000000000000
0.243510689160576 1.733505215327527 3.638000000000000
0.243376818523325 1.742516972424264 3.636000000000000
0.243510689160576 1.753445689886704 3.638000000000000
0.243376818523325 1.762446484655481 3.636000000000000
0.243376818523325 1.772411240771090 3.636000000000000
0.243309883204699 1.781885794467313 3.635000000000000
0.243711495116454 1.794805468009186 3.641000000000000
0.243912301072331 1.806270977784842 3.644000000000000
0.244046171709583 1.817254506887082 3.646000000000000
0.243644559797828 1.824239680338517 3.640000000000000
0.265599344307083 2.282236709547639 3.968000000000000
0.265063861758077 2.288488130539401 3.960000000000000
0.264595314527696 2.295276343844379 3.953000000000000
0.263992896660064 2.300859424587405 3.944000000000000
0.263725155385561 2.309323788799789 3.940000000000000
0.263591284748310 2.318943955098304 3.938000000000000
0.263658220066935 2.330327970927906 3.939000000000000
0.263658220066935 2.341123123386482 3.939000000000000
0.263591284748310 2.351321190728063 3.938000000000000
0.263859026022813 2.364512905400590 3.942000000000000
0.264394508571819 2.380136809852940 3.950000000000000
0.270588074585069 0.828859731532588 3.884000000000000
0.269821733488150 0.837126565557462 3.873000000000000
0.269473396625914 0.846646415592815 3.868000000000000
0.269752066115702 0.858133488267568 3.872000000000000
0.269821733488150 0.868969387699172 3.873000000000000
0.270100402977939 0.880492087939795 3.877000000000000
0.270448739840175 0.892266559966674 3.882000000000000
0.249966532340687 0.972189626349051 3.588000000000000
0.248015845912164 0.974359334148200 3.560000000000000
0.247388839560139 0.981627872815071 3.551000000000000
0.247040502697903 0.989963791430748 3.546000000000000
0.247040502697903 0.999681895167258 3.546000000000000
0.246483163718325 1.007122728742676 3.538000000000000
0.246065159483642 1.015094511710507 3.532000000000000
0.245716822621406 1.023323547628574 3.527000000000000
0.245925824738747 1.033868221855593 3.530000000000000
0.246622498463220 1.046498687261227 3.540000000000000
0.248224848029506 1.063062666147783 3.563000000000000
0.255052250529335 1.694298350717758 3.661000000000000
0.254634246294652 1.701538398294262 3.655000000000000
0.254146574687521 1.708277281123419 3.648000000000000
0.253798237825285 1.715919832495629 3.643000000000000
0.253589235707944 1.724482495902830 3.640000000000000
0.253519568335496 1.733981714836963 3.639000000000000
0.253519568335496 1.743954692698541 3.639000000000000
0.253449900963049 1.753445689886704 3.638000000000000
0.253171231473260 1.761477042144669 3.634000000000000
0.252892561983471 1.769486469746715 3.630000000000000
0.252892561983471 1.779434782370384 3.630000000000000
0.253449900963049 1.793326639005059 3.638000000000000
0.253728570452838 1.805279610618111 3.642000000000000
0.253798237825285 1.815759234391015 3.643000000000000
0.251220545044737 1.807200078928761 3.606000000000000
0.278251485554265 2.286244997067577 3.994000000000000
0.275882794891059 2.277635425859035 3.960000000000000
0.275395123283929 2.284442823237943 3.953000000000000
0.275255788539034 2.294115060594268 3.951000000000000
0.274628782187009 2.299692660173315 3.942000000000000
0.274280445324773 2.307565420432683 3.937000000000000
0.274141110579878 2.317177364985228 3.935000000000000
0.274210777952326 2.328553159068860 3.936000000000000
0.274489447442115 2.341717467921488 3.940000000000000
0.274141110579878 2.349529935377076 3.935000000000000
0.274419780069667 2.362713428303634 3.939000000000000
0.280692575643740 0.827365906063812 3.877000000000000
0.280330578512397 0.836910421337075 3.872000000000000
0.280040980807322 0.846646415592815 3.868000000000000
0.280185779659859 0.857690237498835 3.870000000000000
0.279968581381053 0.867623191901032 3.867000000000000
0.280258179086128 0.879129448649715 3.871000000000000
0.280764975070009 0.891347171445328 3.878000000000000
0.258755549484325 0.978191084338670 3.574000000000000
0.257741957516563 0.984115806032569 3.560000000000000
0.256873164401339 0.990522146643061 3.548000000000000
0.256511167269995 0.998836140602818 3.543000000000000
0.256076770712383 1.006838069972539 3.537000000000000
0.255642374154771 1.014807112358380 3.531000000000000
0.255207977597159 1.022743267760341 3.525000000000000
0.255425175875965 1.033282460823380 3.528000000000000
0.256293968991189 1.046498687261227 3.540000000000000
0.257741957516563 1.062167581107524 3.560000000000000
0.264909500717164 1.683344968017408 3.659000000000000
0.264692302438358 1.691984367720329 3.656000000000000
0.264402704733283 1.700141786749834 3.652000000000000
0.263823509323134 1.706404170069556 3.644000000000000
0.263823509323134 1.716390850841085 3.644000000000000
0.263823509323134 1.726377531612613 3.644000000000000
0.263751109896865 1.735887712874706 3.643000000000000
0.263606311044328 1.744913172881393 3.641000000000000
0.263533911618059 1.754409651233536 3.640000000000000
0.263389112765521 1.763415927166293 3.638000000000000
0.263316713339253 1.772898702608486 3.637000000000000
0.263171914486715 1.781885794467313 3.635000000000000
0.263678710470596 1.795298411010562 3.642000000000000
0.263751109896865 1.805775294201477 3.643000000000000
0.264185506454477 1.818749779383150 3.649000000000000
0.285905334335086 2.271308660787205 3.949000000000000
0.285832934908818 2.281553318022615 3.948000000000000
0.285832934908818 2.292373135719101 3.948000000000000
0.285326138924937 2.299109277966269 3.941000000000000
0.284819342941056 2.305807052065576 3.934000000000000
0.284602144662250 2.314821911501126 3.931000000000000
0.284674544088519 2.326186743256798 3.932000000000000
0.285253739498668 2.341717467921488 3.940000000000000
0.285181340072399 2.351918275845058 3.939000000000000
0.285977733761355 2.369311510992474 3.950000000000000
0.290533433508640 0.825231869679845 3.867000000000000
0.290608564988730 0.836045844455529 3.868000000000000
0.290383170548460 0.845989761185685 3.865000000000000
0.290458302028550 0.856803735961369 3.866000000000000
0.290308039068370 0.866950094001962 3.864000000000000
0.290909090909091 0.879356555198062 3.872000000000000
0.291585274229902 0.892036712836338 3.881000000000000
0.269346356123216 0.981201745202611 3.585000000000000
0.267693463561232 0.984945117105068 3.563000000000000
0.266341096919609 0.989684613824592 3.545000000000000
0.265965439519159 0.997990386038379 3.540000000000000
0.265664913598798 1.006553411202403 3.536000000000000
0.265514650638618 1.015669310414760 3.534000000000000
0.265214124718257 1.024193967430924 3.530000000000000
0.265589782118708 1.035332624436125 3.535000000000000
0.266566491359880 1.048863656045998 3.548000000000000
0.269045830202855 1.068433176389338 3.581000000000000
0.275432006010518 1.686565360139879 3.666000000000000
0.274981217129977 1.693835554118272 3.660000000000000
0.274154770848986 1.698745175205407 3.649000000000000
0.273779113448535 1.706404170069556 3.644000000000000
0.273553719008264 1.714977795804717 3.641000000000000
0.273703981968445 1.725903772685168 3.643000000000000
0.273703981968445 1.735887712874706 3.643000000000000
0.273478587528174 1.744433932789967 3.640000000000000
0.273403456048084 1.753927670560120 3.639000000000000
0.273253193087904 1.762931205910887 3.637000000000000
0.273328324567994 1.773386164445881 3.638000000000000
0.273403456048084 1.783846604144856 3.639000000000000
0.273628850488355 1.795298411010562 3.642000000000000
0.274154770848986 1.808749395701671 3.649000000000000
0.296844477836213 2.272458981709355 3.951000000000000
0.296769346356123 2.282709120108746 3.950000000000000
0.296543951915853 2.291792494094046 3.947000000000000
0.296168294515402 2.299692660173315 3.942000000000000
0.295492111194591 2.305220929276541 3.933000000000000
0.295492111194591 2.315999638243178 3.933000000000000
0.295492111194591 2.326778347209813 3.933000000000000
0.296243425995492 2.343500501526504 3.943000000000000
0.296543951915853 2.356694956781022 3.947000000000000
0.301176149170139 0.814844702180955 3.868000000000000
0.300864695034492 0.824591658764655 3.864000000000000
0.300631104432757 0.834532834912822 3.861000000000000
0.300708967966669 0.845333106778555 3.862000000000000
0.300864695034492 0.856360485192635 3.864000000000000
0.300942558568404 0.867174459968319 3.865000000000000
0.301565466839697 0.879583661746408 3.873000000000000
0.302811283382283 0.893875489879031 3.889000000000000
0.277116317191449 0.983839369008403 3.559000000000000
0.276026227716686 0.989684613824592 3.545000000000000
0.275481182979305 0.997426549662086 3.538000000000000
0.275169728843658 1.005984093662130 3.534000000000000
0.275169728843658 1.015669310414760 3.534000000000000
0.275325455911481 1.025934807035622 3.536000000000000
0.275948364182774 1.037968549081083 3.544000000000000
0.276960590123625 1.051524245928865 3.557000000000000
0.285837032989550 1.678804963742100 3.671000000000000
0.284902670582611 1.683344968017408 3.659000000000000
0.284513352913052 1.691058774521357 3.654000000000000
0.284046171709583 1.698279638023930 3.648000000000000
0.283656854040025 1.705935892306090 3.643000000000000
0.283656854040025 1.715919832495629 3.643000000000000
0.283812581107848 1.726851290540059 3.645000000000000
0.283890444641759 1.737317211403014 3.646000000000000
0.283423263438290 1.744433932789967 3.640000000000000
0.283189672836555 1.752963709213288 3.637000000000000
0.283267536370466 1.763415927166293 3.638000000000000
0.283734717573936 1.776310935470256 3.644000000000000
0.283890444641759 1.787278021080556 3.646000000000000
0.284201898777406 1.799241955021568 3.650000000000000
0.308106003688273 2.265065461541413 3.957000000000000
0.307794549552626 2.273609302631507 3.953000000000000
0.307638822484803 2.283287021151811 3.951000000000000
0.307327368349157 2.291792494094046 3.947000000000000
0.307015914213510 2.300276042380360 3.943000000000000
0.306393005942217 2.306393174854612 3.935000000000000
0.306470869476129 2.317766228356253 3.936000000000000
0.306315142408305 2.327369951162829 3.934000000000000
0.306626596543952 2.340528778851477 3.938000000000000
0.307093777747422 2.354903701430036 3.944000000000000
0.311904924527013 0.815266028293768 3.870000000000000
0.311743733351547 0.825445273318242 3.868000000000000
0.311260159825149 0.834748979133209 3.862000000000000
0.311260159825149 0.845333106778555 3.862000000000000
0.311179564237415 0.855695609039536 3.861000000000000
0.311421351000615 0.866950094001962 3.864000000000000
0.312227306877946 0.879810768294755 3.874000000000000
0.313919814220340 0.895254572661050 3.895000000000000
0.290950071716413 0.988044156257023 3.610000000000000
0.287081483505225 0.984668680080902 3.562000000000000
0.285791954101496 0.989963791430748 3.546000000000000
0.285147189399631 0.997426549662086 3.538000000000000
0.284583020285500 1.005130117351721 3.531000000000000
0.284663615873233 1.015094511710507 3.532000000000000
0.284905402636432 1.025644667101506 3.535000000000000
0.286194932040161 1.040018712693828 3.551000000000000
0.287484461443890 1.054480456909829 3.567000000000000
0.295544020217198 1.676975702000077 3.667000000000000
0.294496277576668 1.681044687929929 3.654000000000000
0.294496277576668 1.691058774521357 3.654000000000000
0.294173895225736 1.699210712386882 3.650000000000000
0.293932108462537 1.707809003359954 3.647000000000000
0.293690321699338 1.716390850841085 3.644000000000000
0.293690321699338 1.726377531612613 3.644000000000000
0.293770917287071 1.736840711893578 3.645000000000000
0.293448534936138 1.744913172881393 3.641000000000000
0.293529130523871 1.755373612580367 3.642000000000000
0.293287343760672 1.763900648421699 3.639000000000000
0.293609726111604 1.775823473632860 3.643000000000000
0.293206748172939 1.783356401725470 3.638000000000000
0.319480909773923 2.279936067703337 3.964000000000000
0.318997336247524 2.287332328453270 3.958000000000000
0.318271975957926 2.292953777344157 3.949000000000000
0.317627211256062 2.299109277966269 3.941000000000000
0.317224233317396 2.306979297643648 3.936000000000000
0.317224233317396 2.317766228356253 3.936000000000000
0.316901850966464 2.326186743256798 3.932000000000000
0.317063042141930 2.338151400711455 3.934000000000000
0.316821255378731 2.347141594909095 3.931000000000000
0.322061334608292 0.814212713011735 3.865000000000000
0.322061334608292 0.824805062403052 3.865000000000000
0.321728024042074 0.834532834912822 3.861000000000000
0.321894679325183 0.845551991580932 3.863000000000000
0.321728024042074 0.855695609039536 3.861000000000000
0.321811351683628 0.866501362069249 3.862000000000000
0.322227989891401 0.878221022456329 3.867000000000000
0.323644559797828 0.892726254227348 3.884000000000000
0.296813059217267 0.984668680080902 3.562000000000000
0.295063178744621 0.988567903399966 3.541000000000000
0.294146574687521 0.995171204156915 3.530000000000000
0.293479953555085 1.002568188420493 3.522000000000000
0.293896591762858 1.013657514949875 3.527000000000000
0.294479885253740 1.025354527167389 3.534000000000000
0.295896455160167 1.040018712693828 3.551000000000000
0.297313025066594 1.054776078007926 3.568000000000000
0.304812512806502 1.672859863080524 3.658000000000000
0.303979236390957 1.678284351824954 3.648000000000000
0.303729253466293 1.686893605125984 3.645000000000000
0.303812581107848 1.697348563660979 3.646000000000000
0.303895908749402 1.707809003359954 3.647000000000000
0.303979236390957 1.718274924222908 3.648000000000000
0.303729253466293 1.726851290540059 3.645000000000000
0.303729253466293 1.736840711893578 3.645000000000000
0.303479270541630 1.745392412972819 3.642000000000000
0.303812581107848 1.757301535274030 3.646000000000000
0.303395942900075 1.764870090932510 3.641000000000000
0.303479270541630 1.775336011795465 3.642000000000000
0.302396011201421 1.778944579950998 3.629000000000000
0.330310771122191 2.279936067703337 3.964000000000000
0.329477494706646 2.285020724281008 3.954000000000000
0.329060856498873 2.292953777344157 3.949000000000000
0.328394235366437 2.299109277966269 3.941000000000000
0.328310907724882 2.309323788799789 3.940000000000000
0.327894269517109 2.317177364985228 3.935000000000000
0.327560958950891 2.325595139303782 3.931000000000000
0.327227648384673 2.333990988966417 3.927000000000000
0.328144252441773 2.351321190728063 3.938000000000000
0.333223140495868 0.805075820941335 3.872000000000000
0.332362543542108 0.813580723842515 3.862000000000000
0.332276483846732 0.823951447849465 3.861000000000000
0.332620722628236 0.835397411794369 3.865000000000000
0.332792842018988 0.846427530790439 3.867000000000000
0.332706782323612 0.856803735961369 3.866000000000000
0.332534662932860 0.866950094001962 3.864000000000000
0.332534662932860 0.877539702811289 3.864000000000000
0.333997677754252 0.892036712836338 3.881000000000000
0.307147052796940 0.986603739250067 3.569000000000000
0.304823441021788 0.988847081006122 3.542000000000000
0.303188306809644 0.993197776839890 3.523000000000000
0.302758008332764 1.001429553339947 3.518000000000000
0.303188306809644 1.012507917541369 3.523000000000000
0.303532545591148 1.023323547628574 3.527000000000000
0.304651321631036 1.036797027016657 3.540000000000000
0.305684037975548 1.050046140438383 3.552000000000000
0.314892425380780 1.663289389014651 3.659000000000000
0.314806365685404 1.672859863080524 3.658000000000000
0.314117888122396 1.679204463859945 3.650000000000000
0.313945768731644 1.688281994924442 3.648000000000000
0.313687589645516 1.696883026479503 3.645000000000000
0.314117888122396 1.709213836650351 3.650000000000000
0.314031828427020 1.718745942568364 3.649000000000000
0.313687589645516 1.726851290540059 3.645000000000000
0.313515470254764 1.735887712874706 3.643000000000000
0.313429410559388 1.745392412972819 3.642000000000000
0.314031828427020 1.758747477294278 3.649000000000000
0.313773649340892 1.767293697209539 3.646000000000000
0.313773649340892 1.777285859145048 3.646000000000000
0.342001229424220 2.274796599485867 3.974000000000000
0.340882453384332 2.278210586320111 3.961000000000000
0.340193975821324 2.284442823237943 3.953000000000000
0.339763677344444 2.292373135719101 3.948000000000000
0.339075199781436 2.298525895759223 3.940000000000000
0.339333378867564 2.311082157166896 3.943000000000000
0.338644901304556 2.317177364985228 3.935000000000000
0.338128543132300 2.324411931397752 3.929000000000000
0.337870364046172 2.333396644431411 3.926000000000000
0.338903080390684 2.351321190728063 3.938000000000000
0.343535277644970 0.804452053518085 3.869000000000000
0.343091318898982 0.814002049955328 3.864000000000000
0.343002527149785 0.824378255126259 3.863000000000000
0.343091318898982 0.835181267573982 3.864000000000000
0.343446485895772 0.846646415592815 3.868000000000000
0.343446485895772 0.857246986730102 3.868000000000000
0.343446485895772 0.867847557867389 3.868000000000000
0.343535277644970 0.878675235553022 3.869000000000000
0.316986544634929 0.986880176274234 3.570000000000000
0.314322792159006 0.988288725793809 3.540000000000000
0.313168499419439 0.994325449592475 3.527000000000000
0.312635748924254 1.002283529650356 3.521000000000000
0.313168499419439 1.013657514949875 3.527000000000000
0.313257291168636 1.023613687562691 3.528000000000000
0.314056416911413 1.035918385468338 3.537000000000000
0.315210709650980 1.049454898242191 3.550000000000000
0.325332969059490 1.655520770870902 3.664000000000000
0.324356259818318 1.660561939893556 3.653000000000000
0.324001092821529 1.668744024160971 3.649000000000000
0.323379550577146 1.675524015719978 3.642000000000000
0.323113175329554 1.684116825529069 3.639000000000000
0.323290758827949 1.695020877753600 3.641000000000000
0.323823509323134 1.707809003359954 3.647000000000000
0.323823509323134 1.717803905877452 3.647000000000000
0.323557134075541 1.726377531612613 3.644000000000000
0.323557134075541 1.736364212384142 3.644000000000000
0.323468342326344 1.745871653064245 3.643000000000000
0.323734717573936 1.757301535274030 3.646000000000000
0.323645925824739 1.766808975954133 3.645000000000000
0.351348951574346 2.265065461541413 3.957000000000000
0.351171368075951 2.274759623553658 3.955000000000000
0.350638617580766 2.282131219065681 3.949000000000000
0.350461034082371 2.291792494094046 3.947000000000000
0.349839491837989 2.298525895759223 3.940000000000000
0.350017075336384 2.310496034377861 3.942000000000000
0.349306741342804 2.316588501614202 3.934000000000000
0.348685199098422 2.323228723491721 3.927000000000000
0.348241240352435 2.331019266291389 3.922000000000000
0.354014070077181 0.804244131043668 3.868000000000000
0.353556451062086 0.813791386898922 3.863000000000000
0.353373403456048 0.823951447849465 3.861000000000000
0.353281879653029 0.834316690692435 3.860000000000000
0.353281879653029 0.844895337173802 3.860000000000000
0.353831022471143 0.856803735961369 3.866000000000000
0.354563212895294 0.869193753665528 3.874000000000000
0.355661498531521 0.882536046874914 3.886000000000000
0.326007786353391 0.984668680080902 3.562000000000000
0.324177310293013 0.988847081006122 3.542000000000000
0.323079024656786 0.995171204156915 3.530000000000000
0.322804453247729 1.003991482271175 3.527000000000000
0.322712929444710 1.013370115597748 3.526000000000000
0.322712929444710 1.023033407694458 3.526000000000000
0.323353596065843 1.034746863403912 3.533000000000000
0.325550167338297 1.051524245928865 3.557000000000000
0.336349976094529 1.650419309044469 3.675000000000000
0.333878833413018 1.648291422526488 3.648000000000000
0.333512738200943 1.656470766211913 3.644000000000000
0.333146642988867 1.664628185241418 3.640000000000000
0.333146642988867 1.674603903684986 3.640000000000000
0.333055119185848 1.684116825529069 3.639000000000000
0.333238166791886 1.695020877753600 3.641000000000000
0.333604262003961 1.706872447833022 3.645000000000000
0.333512738200943 1.716390850841085 3.644000000000000
0.333421214397924 1.725903772685168 3.643000000000000
0.333512738200943 1.736364212384142 3.644000000000000
0.333787309609999 1.747788613429948 3.647000000000000
0.333695785806980 1.757301535274030 3.646000000000000
0.333055119185848 1.763900648421699 3.639000000000000
0.361519021924732 2.261058522387814 3.950000000000000
0.361610545727751 2.272458981709355 3.951000000000000
0.361610545727751 2.283287021151811 3.951000000000000
0.361244450515675 2.291792494094046 3.947000000000000
0.360878355303599 2.300276042380360 3.943000000000000
0.360878355303599 2.311082157166896 3.943000000000000
0.360420736288505 2.318943955098304 3.938000000000000
0.359597022061335 2.324411931397752 3.929000000000000
0.358773307834164 2.329830577221379 3.920000000000000
0.358224165016051 2.336991147920172 3.914000000000000
0.364864421829110 0.794259105583662 3.871000000000000
0.364204630831227 0.803412441146002 3.864000000000000
0.363921863260706 0.813370060786109 3.861000000000000
0.363921863260706 0.823951447849465 3.861000000000000
0.363733351547026 0.834100546472049 3.859000000000000
0.363639095690185 0.844457567569049 3.858000000000000
0.363733351547026 0.855252358270802 3.859000000000000
0.364675910115429 0.868071923833745 3.869000000000000
0.367409329963800 0.885261325455074 3.898000000000000
0.333288709787583 0.977481317452574 3.536000000000000
0.332723174646541 0.985496949732245 3.530000000000000
0.332534662932860 0.994607367780622 3.528000000000000
0.332157639505498 1.003137505960766 3.524000000000000
0.332157639505498 1.012795316893495 3.524000000000000
0.332251895362339 1.022743267760341 3.525000000000000
0.333194453930742 1.035332624436125 3.535000000000000
0.335550850351752 1.052411109223155 3.560000000000000
0.344316645037907 1.640539247874678 3.653000000000000
0.343562598183184 1.646935919711910 3.645000000000000
0.342902807185302 1.653743317090817 3.638000000000000
0.342337272044259 1.660969661757371 3.632000000000000
0.342337272044259 1.670923455545020 3.632000000000000
0.342337272044259 1.680877249332668 3.632000000000000
0.342620039614780 1.692227654664745 3.635000000000000
0.342714295471621 1.702657947961829 3.636000000000000
0.342714295471621 1.712622704077438 3.636000000000000
0.342808551328461 1.723061219120492 3.637000000000000
0.343279830612663 1.735411213365270 3.642000000000000
0.343751109896865 1.747788613429948 3.647000000000000
0.343751109896865 1.757783515947447 3.647000000000000
0.340923434191654 1.753236780802771 3.617000000000000
0.372970425517383 2.265065461541413 3.957000000000000
0.372216378662660 2.271308660787205 3.949000000000000
0.371839355235298 2.279819614893419 3.945000000000000
0.371368075951096 2.287728002718657 3.940000000000000
0.370896796666894 2.295608984723996 3.935000000000000
0.370802540810054 2.305807052065576 3.934000000000000
0.370708284953214 2.315999638243178 3.933000000000000
0.370237005669012 2.323820327444736 3.928000000000000
0.369765726384810 2.331613610826395 3.923000000000000
0.366466771395397 2.321466934878291 3.888000000000000
0.374955262618674 0.793233196121528 3.866000000000000
0.374470323065364 0.802788673722752 3.861000000000000
0.374179359333379 0.812738071616888 3.858000000000000
0.374082371422717 0.823097833295879 3.857000000000000
0.374276347244041 0.834100546472049 3.859000000000000
0.374373335154703 0.844895337173802 3.860000000000000
0.374276347244041 0.855252358270802 3.859000000000000
0.374664298886688 0.866725728035606 3.863000000000000
0.341785397172324 0.974164073162577 3.524000000000000
0.341882385082986 0.984101061701463 3.525000000000000
0.341300457619015 0.992070104087304 3.519000000000000
0.341203469708353 1.001429553339947 3.518000000000000
0.341300457619015 1.011358320132863 3.519000000000000
0.341785397172324 1.022453127826225 3.524000000000000
0.342270336725634 1.033575341339487 3.529000000000000
0.344307082849532 1.049454898242191 3.550000000000000
0.353132982719760 1.625171664574689 3.641000000000000
0.353326958541083 1.636048310979320 3.643000000000000
0.352745031077112 1.643321245539703 3.637000000000000
0.352454067345127 1.651925017676754 3.634000000000000
0.352066115702479 1.660055030886359 3.630000000000000
0.352163103613141 1.670463399527524 3.631000000000000
0.352163103613141 1.680414452733182 3.631000000000000
0.352260091523803 1.690831043120317 3.632000000000000
0.352260091523803 1.700784836907966 3.632000000000000
0.352163103613141 1.710267612350159 3.631000000000000
0.352551055255789 1.722113701265601 3.635000000000000
0.352939006898436 1.733981714836963 3.639000000000000
0.353423946451745 1.746350893155670 3.644000000000000
0.352357079434465 1.751035786519625 3.633000000000000
0.384848029506181 2.271362080211353 3.968000000000000
0.383296222935592 2.273034142170431 3.952000000000000
0.382520319650297 2.279241713850353 3.944000000000000
0.381647428454341 2.284824794593380 3.935000000000000
0.381550440543679 2.295025602516950 3.934000000000000
0.381259476811693 2.304048683698470 3.931000000000000
0.381259476811693 2.314821911501126 3.931000000000000
0.381162488901031 2.325003535350767 3.930000000000000
0.380871525169046 2.333990988966417 3.927000000000000
0.385517382692439 0.793233196121528 3.866000000000000
0.385218222798989 0.803204518671585 3.863000000000000
0.384719622976573 0.812738071616888 3.858000000000000
0.384819342941056 0.823524640572672 3.859000000000000
0.384919062905539 0.834316690692435 3.860000000000000
0.385218222798989 0.845551991580932 3.863000000000000
0.384619903012089 0.854809107502069 3.857000000000000
0.384819342941056 0.865828264170179 3.859000000000000
0.350615395123284 0.962316690692435 3.516000000000000
0.351512874803634 0.974440510186743 3.525000000000000
0.350814835052251 0.982146818458368 3.518000000000000
0.350715115087767 0.991506267711011 3.517000000000000
0.350715115087767 1.001144894569811 3.517000000000000
0.351014274981217 1.011645719484990 3.520000000000000
0.351313434874667 1.022162987892109 3.523000000000000
0.351712314732600 1.032989580307274 3.527000000000000
0.353507274093300 1.047976792751709 3.545000000000000
0.363479270541630 1.626957077004873 3.645000000000000
0.362880950754730 1.634251936221176 3.639000000000000
0.362581790861280 1.642869411268177 3.636000000000000
0.362182911003347 1.651015867969722 3.632000000000000
0.362182911003347 1.660969661757371 3.632000000000000
0.361983471074380 1.670003343510027 3.630000000000000
0.362083191038863 1.680414452733182 3.631000000000000
0.362282630967830 1.691296580301793 3.633000000000000
0.361883751109897 1.699380003617568 3.629000000000000
0.361883751109897 1.709325575659247 3.629000000000000
0.361784031145414 1.718797388773480 3.628000000000000
0.362482070896797 1.732075716799219 3.635000000000000
0.362581790861280 1.742516972424264 3.636000000000000
0.395389659176286 2.269644820574097 3.965000000000000
0.393893859709036 2.271883821248280 3.950000000000000
0.392896660064203 2.276930109678091 3.940000000000000
0.391799740454887 2.281340944843047 3.929000000000000
0.391700020490404 2.291525309274677 3.928000000000000
0.391600300525920 2.301704192542328 3.927000000000000
0.391301140632470 2.310699867903948 3.924000000000000
0.391101700703504 2.320270703726643 3.922000000000000
0.391201420667987 2.331613610826395 3.923000000000000
0.397206474967557 0.784864960563025 3.877000000000000
0.395977050747900 0.793028014229102 3.865000000000000
0.395567242674681 0.802788673722752 3.861000000000000
0.394952530564852 0.812106082447668 3.855000000000000
0.395157434601462 0.823097833295879 3.857000000000000
0.394952530564852 0.833235969590502 3.855000000000000
0.395567242674681 0.845114221976179 3.861000000000000
0.395567242674681 0.855695609039536 3.861000000000000
0.364114473055119 0.972717155495141 3.554000000000000
0.361655624615805 0.975822695307576 3.530000000000000
0.360631104432757 0.982705173670681 3.520000000000000
0.360118844341234 0.990942431334718 3.515000000000000
0.360426200396148 1.001429553339947 3.518000000000000
0.360426200396148 1.011070920780737 3.518000000000000
0.361040912505976 1.022453127826225 3.524000000000000
0.361040912505976 1.032110938758955 3.524000000000000
0.363397308926986 1.048568034947901 3.547000000000000
0.373130250665938 1.615636818074686 3.642000000000000
0.373130250665938 1.625618017682235 3.642000000000000
0.372925346629329 1.634701029910712 3.640000000000000
0.372617990574414 1.643321245539703 3.637000000000000
0.372310634519500 1.651925017676754 3.634000000000000
0.371798374427976 1.659597715450853 3.629000000000000
0.371695922409672 1.669083231475036 3.628000000000000
0.371900826446281 1.679951656133696 3.630000000000000
0.372413086537805 1.692227654664745 3.635000000000000
0.372310634519500 1.701721392434897 3.634000000000000
0.372413086537805 1.712151685731982 3.635000000000000
0.372617990574414 1.723061219120492 3.637000000000000
0.404378116248890 2.259341262750557 3.947000000000000
0.403353596065843 2.264406735254298 3.937000000000000
0.403148692029233 2.274040604462764 3.935000000000000
0.402636431937709 2.281921586468102 3.930000000000000
0.402943787992624 2.294442220309905 3.933000000000000
0.402636431937709 2.303462560909435 3.930000000000000
0.402329075882795 2.312466458017024 3.927000000000000
0.401611911754662 2.319087495820612 3.920000000000000
0.401816815791271 2.331019266291389 3.922000000000000
0.407377911344854 0.784055195321278 3.873000000000000
0.406010518407213 0.792002104766968 3.860000000000000
0.405800150262960 0.802164906299502 3.858000000000000
0.405379413974455 0.811895419391262 3.854000000000000
0.405800150262960 0.823311236934275 3.858000000000000
0.405484598046581 0.833235969590502 3.855000000000000
0.406010518407213 0.844895337173802 3.860000000000000
0.406220886551465 0.855917234423902 3.862000000000000
0.407798647633358 0.869866851564598 3.877000000000000
0.371194590533434 0.975546258283409 3.529000000000000
0.369827197595793 0.981588463246055 3.516000000000000
0.369722013523666 0.990942431334718 3.515000000000000
0.370037565740045 1.001429553339947 3.518000000000000
0.370247933884298 1.011645719484990 3.520000000000000
0.370879038317055 1.023033407694458 3.526000000000000
0.370879038317055 1.032696699791168 3.526000000000000
0.371720510894065 1.044724960672648 3.534000000000000
0.380661157024793 1.595515563765121 3.619000000000000
0.381923365890308 1.610757080293571 3.631000000000000
0.382133734034560 1.621600839714322 3.633000000000000
0.382449286250939 1.632904655152568 3.636000000000000
0.382449286250939 1.642869411268177 3.636000000000000
0.381818181818182 1.650106718262690 3.630000000000000
0.381502629601803 1.658683084579841 3.627000000000000
0.381397445529677 1.668163119440044 3.626000000000000
0.381502629601803 1.678563266335239 3.627000000000000
0.381923365890308 1.690365505938841 3.631000000000000
0.382344102178813 1.702189670198363 3.635000000000000
0.383080390683696 1.715448814150173 3.642000000000000
0.386551465063862 1.741064058363434 3.675000000000000
0.414109691960932 2.253617063959702 3.937000000000000
0.413057851239669 2.258655130643543 3.927000000000000
0.413268219383922 2.270573198204371 3.929000000000000
0.412952667167543 2.279599019967880 3.926000000000000
0.413583771600301 2.293858838102859 3.932000000000000
0.413057851239669 2.301704192542328 3.927000000000000
0.412742299023291 2.310699867903948 3.924000000000000
0.412321562734786 2.319087495820612 3.920000000000000
0.413688955672427 2.337557056176450 3.933000000000000
0.417095826787788 0.782435664837785 3.865000000000000
0.415800833276416 0.790565831519982 3.853000000000000
0.415369168772625 0.800293604029752 3.849000000000000
0.415477084898573 0.811052767165635 3.850000000000000
0.415800833276416 0.822244218742292 3.853000000000000
0.415908749402363 0.833019825370116 3.854000000000000
0.416124581654259 0.844019797964296 3.856000000000000
0.416556246158049 0.855473983655169 3.860000000000000
0.381591421351001 0.967790619535965 3.536000000000000
0.379648931083942 0.972505451017578 3.518000000000000
0.379325182706099 0.981309285639898 3.515000000000000
0.379109350454204 0.990378594958425 3.513000000000000
0.379541014957995 1.001144894569811 3.517000000000000
0.379541014957995 1.010783521428610 3.517000000000000
0.380404343965576 1.022743267760341 3.525000000000000
0.380404343965576 1.032403819275061 3.525000000000000
0.381807253602896 1.045907445065034 3.538000000000000
0.390008879174920 1.593311204047291 3.614000000000000
0.391735537190083 1.610313467768015 3.630000000000000
0.391951369441978 1.621154486606776 3.632000000000000
0.392383033945769 1.632904655152568 3.636000000000000
0.392383033945769 1.642869411268177 3.636000000000000
0.391519704938187 1.649197568555658 3.628000000000000
0.390764292056554 1.655939191966806 3.621000000000000
0.390764292056554 1.665862839352565 3.621000000000000
0.391195956560344 1.677637673136267 3.625000000000000
0.391735537190083 1.689899968757365 3.630000000000000
0.392922614575507 1.704999336779158 3.641000000000000
0.394973020968513 1.723927144368378 3.660000000000000
0.424757871730073 2.253044644080616 3.936000000000000
0.423462878218701 2.256929649260317 3.924000000000000
0.423139129840858 2.265949989859847 3.921000000000000
0.423462878218701 2.278437736717769 3.924000000000000
0.424326207226282 2.293858838102859 3.932000000000000
0.423894542722492 2.302290315331363 3.928000000000000
0.422923297588963 2.307755551048821 3.919000000000000
0.422599549211119 2.316721080008550 3.916000000000000
0.422383716959224 2.326264510011346 3.914000000000000
0.427544566627963 0.771643614718021 3.864000000000000
0.426659381189810 0.780613693043855 3.856000000000000
0.425995492111195 0.789950285842702 3.850000000000000
0.425774195751656 0.800085681555335 3.848000000000000
0.426106140290964 0.811263430222042 3.851000000000000
0.426438084830271 0.822457622380689 3.854000000000000
0.426438084830271 0.833019825370116 3.854000000000000
0.426216788470733 0.843144258754789 3.852000000000000
0.427101973908886 0.855473983655169 3.860000000000000
0.391362611843453 0.968064315978141 3.537000000000000
0.388928351888532 0.971676139945079 3.515000000000000
