# This PCD file was generated using the MATLAB® pcwrite function
# from Computer Vision Toolbox®.
# .PCD v.7 - Point Cloud Data file format
VERSION .7
FIELDS x y z
SIZE 8 8 8
TYPE F F F
COUNT 1 1 1
WIDTH 864
HEIGHT 1
VIEWPOINT 0 0 0 1 0 0 0
POINTS 864
DATA ascii
-0.546015982514856 1.567842197289016 3.601000000000000
-0.552232770985588 1.685505215327527 3.642000000000000
-0.550564852127587 1.690365505938841 3.631000000000000
-0.546774127450311 1.688609615057854 3.606000000000000
-0.540644764701865 1.332127590535126 3.631000000000000
-0.540793661635134 1.342448260552611 3.632000000000000
-0.530286182637798 1.331026961845617 3.628000000000000
-0.529701523120006 1.637447400009866 3.624000000000000
-0.517792500512260 0.156990073612032 3.610000000000000
-0.520517724199167 1.052917820908448 3.629000000000000
-0.516788470732873 1.608210246487944 3.603000000000000
-0.509618195478451 1.040960453401884 3.622000000000000
-0.506944880814152 1.618084563397883 3.603000000000000
-0.543734717573936 -0.455052295785533 3.941000000000000
-0.497929103203333 1.324056313478730 3.609000000000000
-0.499170821665187 1.337273625187045 3.618000000000000
-0.503309883204699 1.648291422526488 3.648000000000000
-0.541487603305785 -0.473299956698805 4.004000000000000
-0.536889556724268 -0.458400815597200 3.970000000000000
-0.490097670924117 1.319627587794544 3.624000000000000
-0.492531930879038 1.336163229063324 3.642000000000000
-0.489421487603306 1.337643241998871 3.619000000000000
-0.541678847073287 -0.640078314870946 4.088000000000000
-0.539558773307834 -0.626413466123666 4.072000000000000
-0.526440816884093 -0.469635546444643 3.973000000000000
-0.534391093504542 -0.465675186222546 4.033000000000000
-0.483509323133666 0.758709109146418 3.649000000000000
-0.478871661771737 1.325890694627911 3.614000000000000
-0.483244313912984 1.347992512730003 3.647000000000000
-0.525319308790383 -0.644909193556344 4.048000000000000
-0.530120893381600 -0.639608590080189 4.085000000000000
-0.528304077590328 -0.626259631775404 4.071000000000000
-0.527265897138174 -0.613893972363971 4.063000000000000
-0.529472030599003 -0.605280991871434 4.080000000000000
-0.512861143364524 -0.477983984038851 3.952000000000000
-0.472112560617444 1.334695724143979 3.638000000000000
-0.510702820845571 -0.651465498813328 4.020000000000000
-0.523279830612663 -0.656220594925538 4.119000000000000
-0.516419643466976 -0.636477091475146 4.065000000000000
-0.517308926985862 -0.626413466123666 4.072000000000000
-0.515530359948091 -0.613138503532610 4.058000000000000
-0.508162010791613 -0.593412737128857 4.000000000000000
-0.520611980056007 -0.596720444193529 4.098000000000000
-0.497871730073082 -0.473992721014235 3.919000000000000
-0.510829861348269 -0.475309471999474 4.021000000000000
-0.487073287343761 -0.442697412342485 3.834000000000000
-0.514768116931904 0.109582543588956 4.052000000000000
-0.516546683969674 0.121104366843343 4.066000000000000
-0.508034970288915 0.130068383001814 3.999000000000000
-0.512735468888737 0.208698738784168 4.036000000000000
-0.522136466088382 0.235052811014947 4.110000000000000
-0.524804316645038 0.247575154979911 4.131000000000000
-0.518325251007445 0.255700246104263 4.080000000000000
-0.459124376750222 1.632929057294607 3.614000000000000
-0.506929854518134 -0.672040845633979 4.078000000000000
-0.508918789700157 -0.663457649786509 4.094000000000000
-0.508297247455775 -0.651441129558273 4.089000000000000
-0.497731029301277 -0.604979440153911 4.004000000000000
-0.478587528174305 -0.444544871548922 3.850000000000000
-0.484305716822621 -0.439179009334422 3.896000000000000
-0.496363636363636 0.107986943867400 3.993000000000000
-0.498601188443412 0.119466211364645 4.011000000000000
-0.497606720852401 0.130198483910043 4.003000000000000
-0.504195068642852 0.198617124252506 4.056000000000000
-0.502330441909706 0.208957285289104 4.041000000000000
-0.509167406597910 0.223026720674402 4.096000000000000
-0.511280650228810 0.235224382409848 4.113000000000000
-0.507178471415887 0.244518671585098 4.080000000000000
-0.505935386927122 0.255073529814791 4.070000000000000
-0.503573526398470 0.264984866506251 4.051000000000000
-0.506556929171505 0.277722631177957 4.075000000000000
-0.497855337750154 0.283927966542975 4.005000000000000
-0.501708899665324 0.297186650077010 4.036000000000000
-0.505065227784987 0.310309751538837 4.063000000000000
-0.502951984154088 0.320099779109092 4.046000000000000
-0.447759032852947 0.748936752848835 3.602000000000000
-0.488007649750700 -0.661493858355760 4.014000000000000
-0.495666962639164 -0.660702696184562 4.077000000000000
-0.480834642442456 -0.543380836754493 3.955000000000000
-0.482901441158391 0.118304610207024 3.972000000000000
-0.485697698244655 0.129938282093585 3.995000000000000
-0.485576121849600 0.184635179206656 3.994000000000000
-0.492505976367734 0.209474378298976 4.051000000000000
-0.488372378935865 0.240743015626798 4.017000000000000
-0.488493955330920 0.251814605109541 4.018000000000000
-0.489223413701250 0.274246838738675 4.024000000000000
-0.491898094392460 0.286834594914576 4.046000000000000
-0.489588142886415 0.296523944464846 4.027000000000000
-0.493113858343009 0.309775129766557 4.056000000000000
-0.497125879379824 0.323501729307236 4.089000000000000
-0.500286865651253 0.336836217339114 4.115000000000000
-0.498341643330374 0.357993817247030 4.099000000000000
-0.463730619493204 -0.536099121369414 3.902000000000000
-0.460402977938665 0.104768700361209 3.874000000000000
-0.465869817635407 0.116755808663528 3.920000000000000
-0.471574346014617 0.183433247644470 3.968000000000000
-0.477873096099993 0.196903219087605 4.021000000000000
-0.482745714090568 0.221175424653179 4.062000000000000
-0.476922341370125 0.229505335913134 4.013000000000000
-0.476446964005191 0.240263567251141 4.009000000000000
-0.472881633768185 0.249370411580603 3.979000000000000
-0.475733897957790 0.261845080381270 4.003000000000000
-0.479655761218496 0.275064672253800 4.036000000000000
-0.478942695171095 0.285700300915902 4.030000000000000
-0.480487671607131 0.297702087775360 4.043000000000000
-0.481081893313298 0.309164133455381 4.048000000000000
-0.482032648043166 0.320890930317962 4.056000000000000
-0.474783143227922 0.327013532993867 3.995000000000000
-0.475020831910389 0.338131350613616 3.997000000000000
-0.491302506659381 0.780244547612131 4.134000000000000
-0.488806775493477 0.787553054926744 4.113000000000000
-0.492490950071716 0.804845875150047 4.144000000000000
-0.492847483095417 1.100923565168299 4.147000000000000
-0.493204016119118 1.226827557100026 4.150000000000000
-0.487737176422376 1.224476335074516 4.104000000000000
-0.493798237825285 1.251079898927336 4.155000000000000
-0.490232907588280 1.298571334608617 4.125000000000000
-0.429622293559183 1.336164774751566 3.615000000000000
-0.463288026774128 -0.482579983885378 3.990000000000000
-0.460036882726590 -0.468335271838328 3.962000000000000
-0.481053206748173 -0.024207220885427 4.143000000000000
-0.462475240762243 0.107716503236627 3.983000000000000
-0.451676798032921 0.115862269311511 3.890000000000000
-0.455856840379756 0.127694041426637 3.926000000000000
-0.458179086127997 0.182416228630312 3.946000000000000
-0.456669626391640 0.203372680782491 3.933000000000000
-0.462126903900007 0.216710534249053 3.980000000000000
-0.469674202581791 0.231335430792083 4.045000000000000
-0.458527422990233 0.236667704433713 3.949000000000000
-0.463055802199303 0.249934456241127 3.988000000000000
-0.464681374223072 0.261779668170333 4.002000000000000
-0.468280855132846 0.274860213875018 4.033000000000000
-0.468629191995082 0.286125661165405 4.036000000000000
-0.464913598797896 0.294830363455983 4.004000000000000
-0.465842497097193 0.306414650055086 4.012000000000000
-0.465494160234957 0.317172519636270 4.009000000000000
-0.468164742845434 0.330042194000318 4.032000000000000
-0.475712041527218 0.773261226794122 4.097000000000000
-0.479195410149580 0.790233760681418 4.127000000000000
-0.477221501263575 0.798242409958179 4.110000000000000
-0.477802062700635 0.810491002669327 4.115000000000000
-0.475712041527218 0.874314706511075 4.097000000000000
-0.478847073287344 0.891378764874509 4.124000000000000
-0.483839901646062 1.106233059092429 4.167000000000000
-0.479311522436992 1.107192668395060 4.128000000000000
-0.477337613550987 1.113899541226575 4.111000000000000
-0.479311522436992 1.129818913304429 4.128000000000000
-0.482562666484530 1.148872272435774 4.156000000000000
-0.482446554197118 1.228305662590508 4.155000000000000
-0.480588757598525 1.234918993877540 4.139000000000000
-0.483027115634178 1.252585410237718 4.160000000000000
-0.486974933406188 1.274316888014339 4.194000000000000
-0.488948842292193 1.291022807123321 4.211000000000000
-0.485813810532068 1.294211649665923 4.184000000000000
-0.480472645311113 1.291323273570375 4.138000000000000
-0.487555494843248 1.321866917338566 4.199000000000000
-0.488252168567721 1.335279895638638 4.205000000000000
-0.483956013933475 1.334953448474318 4.168000000000000
-0.481982105047469 1.340884736602665 4.151000000000000
-0.480356533023701 1.347700147443311 4.137000000000000
-0.484652687657947 1.371192734169028 4.174000000000000
-0.419862031282016 1.336534391563392 3.616000000000000
-0.449325865719555 -0.490175331473392 3.963000000000000
-0.450799808756232 -0.480886720784026 3.976000000000000
-0.451253329690595 -0.470462993921389 3.980000000000000
-0.449325865719555 0.107175621975083 3.963000000000000
-0.446604740113380 0.117321716919805 3.939000000000000
-0.451706850624957 0.129580504595956 3.984000000000000
-0.448872344785192 0.183017194411405 3.959000000000000
-0.441616009835394 0.190733160493962 3.895000000000000
-0.455788539034219 0.218888529568139 4.020000000000000
-0.448192063383649 0.226073908015106 3.953000000000000
-0.447058261047743 0.236308118151971 3.943000000000000
-0.447285021514924 0.247239576196401 3.945000000000000
-0.451366709924186 0.260406011740653 3.981000000000000
-0.454994877399085 0.273497158016476 4.013000000000000
-0.451706850624957 0.282439205669716 3.984000000000000
-0.454881497165494 0.295419435111240 4.012000000000000
-0.455561778567038 0.306872897288468 4.018000000000000
-0.457035721603716 0.318913052295785 4.031000000000000
-0.458963185574756 0.331351885246351 4.048000000000000
-0.460550508845024 0.354762353173320 4.062000000000000
-0.465652619356601 0.797659751264779 4.107000000000000
-0.460663889078615 0.867058982805588 4.063000000000000
-0.453634314595998 1.040234122438241 4.001000000000000
-0.471094870568950 1.091660244569537 4.155000000000000
-0.471888532204084 1.104905685611396 4.162000000000000
-0.471548391503313 1.115507342019151 4.159000000000000
-0.467239942626870 1.116609099828440 4.121000000000000
-0.466446280991736 1.125987163113959 4.114000000000000
-0.469054026364319 1.143619968976612 4.137000000000000
-0.468487125196366 1.153561868638424 4.132000000000000
-0.408735742094119 1.036074664415735 3.605000000000000
-0.468033604262004 1.220323892941905 4.128000000000000
-0.469847687999454 1.236410802277972 4.144000000000000
-0.470641349634588 1.249875489879031 4.151000000000000
-0.473815996175125 1.269759245353343 4.179000000000000
-0.472001912437675 1.276306802672615 4.163000000000000
-0.475630079912574 1.297614213754433 4.195000000000000
-0.469734307765863 1.292883596520557 4.143000000000000
-0.473022334539990 1.313367177693855 4.172000000000000
-0.473929376408715 1.327341251788229 4.180000000000000
-0.475743460146165 1.343921465882495 4.196000000000000
-0.467693463561232 1.332486036734761 4.125000000000000
-0.464065296086333 1.333366377443914 4.093000000000000
-0.466559661225326 1.351810757332427 4.115000000000000
-0.461911071648112 1.349507056998624 4.074000000000000
-0.466446280991736 1.374031757864100 4.114000000000000
-0.408622361860529 1.322221932329549 3.604000000000000
-0.437170958267878 -0.553659312771660 3.951000000000000
-0.445801516289871 -0.553547760122340 4.029000000000000
-0.437281606447647 -0.488814764063296 3.952000000000000
-0.439826514582337 -0.480765773419643 3.975000000000000
-0.441043644559798 -0.471172234615743 3.986000000000000
-0.457862167884707 -0.421096495891868 4.138000000000000
-0.441818181818182 0.031384936665150 3.993000000000000
-0.437724199166724 0.106986313533542 3.956000000000000
-0.438609384604877 0.118066333046486 3.964000000000000
-0.442260774537258 0.130003332547700 3.997000000000000
-0.436396421009494 0.193132627724824 3.944000000000000
-0.436396421009494 0.203941483093350 3.944000000000000
-0.435400587391572 0.214260289515081 3.935000000000000
-0.439494570043030 0.227160526849482 3.972000000000000
-0.439273273683492 0.237926256419813 3.970000000000000
-0.438056143706031 0.248116979001661 3.959000000000000
-0.440269107301414 0.260275187318779 3.979000000000000
-0.440047810941876 0.271043657471100 3.977000000000000
-0.438720032784646 0.281092231546291 3.965000000000000
-0.442039478177720 0.294167657843820 3.995000000000000
-0.445912164469640 0.307789391755233 4.030000000000000
-0.448457072604330 0.320653584955301 4.053000000000000
-0.451112628918790 0.333725700629786 4.077000000000000
-0.441707533638413 0.337708369189281 3.992000000000000
-0.449563554402022 0.911598921306929 4.063000000000000
-0.451223277098559 1.071429717774867 4.078000000000000
-0.450670036199713 1.092440828094254 4.073000000000000
-0.460517724199167 1.127718290096085 4.162000000000000
-0.454432074311864 1.124071288018724 4.107000000000000
-0.454321426132095 1.146303250878356 4.106000000000000
-0.453214944334403 1.210864017802820 4.096000000000000
-0.458747353322860 1.237007525638144 4.146000000000000
-0.458194112424015 1.246864467258267 4.141000000000000
-0.457308926985862 1.255782474526290 4.133000000000000
-0.455981148828632 1.263430298778249 4.121000000000000
-0.460739020558705 1.288025169504996 4.164000000000000
-0.462730687794550 1.305054115531974 4.182000000000000
-0.456645037907247 1.299200944952670 4.127000000000000
-0.460960316918243 1.322895611232001 4.166000000000000
-0.460517724199167 1.333031730458280 4.162000000000000
-0.455538556109555 1.329901821390790 4.117000000000000
-0.454764018851171 1.338904424943681 4.110000000000000
-0.452882999795096 1.344583579528948 4.093000000000000
-0.454321426132095 1.360107014245545 4.106000000000000
-0.458968649682399 1.385387392226613 4.148000000000000
-0.461956150536166 1.405847031675646 4.175000000000000
-0.426484529745236 -0.542968664185526 3.952000000000000
-0.428534936138242 -0.480281983962114 3.971000000000000
-0.430801174783143 -0.471881475310097 3.992000000000000
-0.435873232702684 -0.466367983424960 4.039000000000000
-0.424649955604125 -0.443575308452503 3.935000000000000
-0.433283245679940 -0.441589921235674 4.015000000000000
-0.432959497302097 -0.100408302867197 4.012000000000000
-0.428103271634451 0.107283798227392 3.967000000000000
-0.429506181271771 0.118542887367561 3.980000000000000
-0.428319103886347 0.129092626190098 3.969000000000000
-0.430369510279353 0.184357810384613 3.988000000000000
-0.429829929649614 0.195042407765713 3.983000000000000
-0.428319103886347 0.205234215618029 3.969000000000000
-0.427239942626870 0.215567086706533 3.959000000000000
-0.426268697493341 0.225902336620205 3.950000000000000
-0.426052865241445 0.236607773386756 3.948000000000000
-0.426916194249027 0.247928964114819 3.956000000000000
-0.426484529745236 0.258509057623477 3.952000000000000
-0.430909090909091 0.272134102157934 3.993000000000000
-0.431232839286934 0.283289926168721 3.996000000000000
-0.430909090909091 0.294020389930005 3.993000000000000
-0.434470323065364 0.307483893599645 4.026000000000000
-0.437384058465952 0.320653584955301 4.053000000000000
-0.422491633085172 0.341923833745334 3.915000000000000
-0.424002458848439 0.353914296520009 3.929000000000000
-0.439758213236801 0.389401347270106 4.075000000000000
-0.389469298545181 0.750392210169752 3.609000000000000
-0.417203742913735 0.983944815641050 3.866000000000000
-0.417743323543474 1.006434963248795 3.871000000000000
-0.448391503312615 1.137208717243194 4.155000000000000
-0.442671948637388 1.145186540453731 4.102000000000000
-0.439218632607062 1.203177869252314 4.070000000000000
-0.439218632607062 1.214332037951579 4.070000000000000
-0.442995697015231 1.236024785823517 4.105000000000000
-0.442671948637388 1.246363346360233 4.102000000000000
-0.444722355030394 1.263430298778249 4.121000000000000
-0.449362748446144 1.288025169504996 4.164000000000000
-0.452708148350523 1.309110955202447 4.195000000000000
-0.444290690526603 1.296052893232407 4.117000000000000
-0.448175671060720 1.318767516429789 4.153000000000000
-0.450010245201831 1.335594021146330 4.170000000000000
-0.447959838808825 1.340884736602665 4.151000000000000
-0.441592787377911 1.333040609943928 4.092000000000001
-0.441376955126016 1.343598055283020 4.090000000000000
-0.444614438904446 1.364744495541073 4.120000000000000
-0.448715251690458 1.388727284686176 4.158000000000000
-0.450981490335360 1.407193950987432 4.179000000000000
-0.447851922682877 1.408802201235454 4.150000000000000
-0.450333993579674 1.428046469308222 4.173000000000000
-0.389469298545181 1.324056313478730 3.609000000000000
-0.390656375930606 1.625719156119994 3.620000000000000
-0.419789631855748 -0.613952883914428 3.991000000000000
-0.420631104432757 -0.571345209188623 3.999000000000000
-0.418106686701728 -0.557022467291154 3.975000000000000
-0.415056348610068 -0.542144319047593 3.946000000000000
-0.416108189331330 -0.489309515848786 3.956000000000000
-0.418842975206612 -0.481612404970320 3.982000000000000
-0.421157024793389 -0.473299956698805 4.004000000000000
-0.416003005259204 0.096120267700049 3.955000000000000
-0.417475582268971 0.107337886353546 3.969000000000000
-0.417896318557476 0.118334394852091 3.973000000000000
-0.416318557475582 0.128734848692468 3.958000000000000
-0.414214876033058 0.182046403534254 3.938000000000000
-0.415792637114951 0.193573346195798 3.953000000000000
-0.415897821187077 0.204458576103221 3.954000000000000
-0.414951164537942 0.214804788344853 3.945000000000000
-0.413794139744553 0.224987289180730 3.934000000000000
-0.413583771600301 0.235648876635442 3.932000000000000
-0.413583771600301 0.246424845020088 3.932000000000000
-0.417160030052592 0.259424828576596 3.966000000000000
-0.419158527422990 0.271588879814517 3.985000000000000
-0.420105184072126 0.283148139418887 3.994000000000000
-0.419053343350864 0.293357684317842 3.984000000000000
-0.419263711495117 0.304428912043762 3.986000000000000
-0.420105184072126 0.315985792822964 3.994000000000000
-0.405484598046581 0.326118678162495 3.855000000000000
-0.404748309541698 0.336072263665912 3.848000000000000
-0.411480090157776 0.352382979889609 3.912000000000000
-0.419053343350864 0.369787034854722 3.984000000000000
-0.409166040570999 0.659566330305904 3.890000000000000
-0.418527422990233 0.685561441107634 3.979000000000000
-0.433673929376409 0.800767264296246 4.123000000000000
-0.381187077385425 0.753511047286002 3.624000000000000
-0.409902329075883 0.831633978831745 3.897000000000000
-0.411059353869271 0.898242585355426 3.908000000000000
-0.415266716754320 1.058913918319694 3.948000000000000
-0.430308039068370 1.209385912312338 4.091000000000000
-0.427257700976709 1.211945144510888 4.062000000000000
-0.426836964688204 1.221872979505928 4.058000000000000
-0.431359879789632 1.246059503516167 4.101000000000000
-0.429887302779865 1.253006462292332 4.087000000000000
-0.433148009015778 1.273796265134864 4.118000000000000
-0.430413223140496 1.276968302428704 4.092000000000001
-0.435041322314050 1.302034191500907 4.136000000000000
-0.435987978963186 1.316227150397658 4.145000000000000
-0.438722764838467 1.335914307482337 4.171000000000000
-0.434936138241923 1.335716305914724 4.135000000000000
-0.431359879789632 1.335972517443804 4.101000000000000
-0.432411720510894 1.350496725004522 4.111000000000000
-0.434305033809166 1.367725733516770 4.129000000000000
-0.434410217881292 1.379375585799400 4.130000000000000
-0.433568745304283 1.388000350794494 4.122000000000000
-0.438722764838467 1.415931079844116 4.171000000000000
-0.437145003756574 1.422228882445476 4.156000000000000
-0.438196844477836 1.437068256935043 4.166000000000000
-0.380661157024793 1.615351896208679 3.619000000000000
-0.398230995150604 -0.640564680475546 3.887000000000000
-0.407759032852947 -0.612260706083544 3.980000000000000
-0.410832593402090 -0.605886002751544 4.010000000000000
-0.409705621200738 -0.593264383944575 3.999000000000000
-0.409193361109214 -0.581576733555138 3.994000000000000
-0.407144320743119 -0.567773408681068 3.974000000000000
-0.405402636431938 -0.554500101401534 3.957000000000000
-0.404480568267195 -0.542419100760237 3.948000000000000
-0.406529608633290 -0.490793771205253 3.968000000000000
-0.408373744962776 -0.482096194427849 3.986000000000000
-0.409398265145823 -0.472354302439666 3.996000000000000
-0.411959565603442 -0.464289591817718 4.021000000000000
-0.412471825694966 -0.133859430068569 4.026000000000000
-0.419336110921385 -0.124869893610607 4.093000000000000
-0.408066388907862 0.064053550972084 3.983000000000000
-0.416262550372242 0.076475074406801 4.063000000000000
-0.406324704596681 0.096387605992008 3.966000000000000
-0.408373744962776 0.107797635425859 3.986000000000000
-0.409705621200738 0.119108795623839 3.999000000000000
-0.406939416706509 0.129190201871269 3.972000000000000
-0.401919267809576 0.170601678332411 3.923000000000000
-0.403148692029233 0.181907719123233 3.935000000000000
-0.402533979919404 0.192398096939866 3.929000000000000
-0.402943787992624 0.203372680782491 3.933000000000000
-0.404070760193976 0.214750338461876 3.944000000000000
-0.401509459736357 0.224129432206223 3.919000000000000
-0.400587391571614 0.234330393602385 3.910000000000000
-0.402841335974319 0.246424845020088 3.932000000000000
-0.404480568267195 0.258247408779728 3.948000000000000
-0.406939416706509 0.270702893506465 3.972000000000000
-0.407349224779728 0.281872058670379 3.976000000000000
-0.407451676798033 0.292842246619492 3.977000000000000
-0.407144320743119 0.303512417576997 3.974000000000000
-0.413393893859709 0.330287761108949 4.035000000000000
-0.407759032852947 0.380323279051539 3.980000000000000
-0.395874598729595 0.379828088772932 3.864000000000000
-0.385834300935728 0.452763021875325 3.766000000000000
-0.401202103681443 0.696171100014799 3.916000000000000
-0.404378116248890 0.766584620950105 3.947000000000000
-0.401099651663138 0.835475244322884 3.915000000000000
-0.404480568267195 0.853337382086460 3.948000000000000
-0.399255515333652 0.863674122876734 3.897000000000000
-0.402533979919404 0.881533881815142 3.929000000000000
-0.404173212212281 0.906746929177880 3.945000000000000
-0.400177583498395 0.919192317600566 3.906000000000000
-0.407759032852947 1.034774258261484 3.980000000000000
-0.404378116248890 1.058645703041498 3.947000000000000
-0.403968308175671 1.068378956715248 3.943000000000000
-0.401714363772966 1.073163749773902 3.921000000000000
-0.417184618536985 1.192609461585262 4.072000000000000
-0.418414042756642 1.207316564625664 4.084000000000001
-0.417287070555290 1.215227122991839 4.073000000000000
-0.410935045420395 1.207721173188338 4.011000000000000
-0.416160098353938 1.234209632597578 4.062000000000000
-0.416365002390547 1.245955043493036 4.064000000000000
-0.414930674134280 1.252762232587712 4.050000000000000
-0.422921931562052 1.288202627670012 4.128000000000000
-0.422717027525442 1.298886139780644 4.126000000000000
-0.422512123488833 1.309558689563315 4.124000000000000
-0.422921931562052 1.322141995034065 4.128000000000000
-0.421692507342395 1.329578794472794 4.116000000000000
-0.421077795232566 1.338904424943681 4.110000000000000
-0.417491974591899 1.338670434053375 4.075000000000000
-0.418926302848166 1.354475786958118 4.089000000000000
-0.420360631104433 1.370357876158581 4.103000000000000
-0.422921931562052 1.390020729762172 4.128000000000000
-0.420565535141042 1.393526032788323 4.105000000000000
-0.421590055324090 1.408198231776500 4.115000000000000
-0.418823850829861 1.410162034169576 4.088000000000000
-0.403367256334950 -0.688773863617678 4.045000000000000
-0.397284338501468 -0.612876043476593 3.984000000000000
-0.394492179495936 -0.576043454668033 3.956000000000000
-0.394691619424903 -0.565487456356232 3.958000000000000
-0.395190219247319 -0.555340890031407 3.963000000000000
-0.392597500170753 -0.540907801340693 3.937000000000000
-0.396486578785602 -0.491783274776232 3.976000000000000
-0.397683218359402 -0.482338089156613 3.988000000000000
-0.397384058465952 -0.471054027833351 3.985000000000000
-0.410347653848781 -0.463865919766722 4.115000000000000
-0.405361655624616 0.065372253251700 4.065000000000000
-0.392098900348337 0.074009350865750 3.932000000000000
-0.394193019602486 0.085238140131438 3.953000000000000
-0.394791339389386 0.096217481624398 3.959000000000000
-0.398281538146302 0.108013987930477 3.994000000000000
-0.397384058465952 0.118691810592897 3.985000000000000
-0.395190219247319 0.128897474827754 3.963000000000000
-0.392398060241787 0.181907719123233 3.935000000000000
-0.393295539922136 0.193132627724824 3.944000000000000
-0.392597500170753 0.203579517986440 3.937000000000000
-0.393893859709036 0.215077037759739 3.950000000000000
-0.393295539922136 0.225559193830402 3.944000000000000
-0.394093299638003 0.236847497574585 3.952000000000000
-0.393295539922136 0.247176904567454 3.944000000000000
-0.391600300525920 0.256873752350049 3.927000000000000
-0.394392459531453 0.269544296026704 3.955000000000000
-0.396087698927669 0.281588485170711 3.972000000000000
-0.396187418892152 0.292547710791864 3.973000000000000
-0.395289939211802 0.378794341246307 3.964000000000000
-0.394392459531453 0.388773315501280 3.955000000000000
-0.388608701591421 0.393752010216890 3.897000000000000
-0.391500580561437 0.407441688636999 3.926000000000000
-0.387412062017622 0.413833854957439 3.885000000000000
-0.391201420667987 0.450135560147553 3.923000000000000
-0.388508981626938 0.671260963698251 3.896000000000000
-0.391001980739021 0.686314158394677 3.921000000000000
-0.395090499282836 0.704348799351030 3.962000000000000
-0.391201420667987 0.740420745109431 3.923000000000000
-0.392597500170753 0.764642425305438 3.937000000000000
-0.392597500170753 0.775432096600034 3.937000000000000
-0.393993579673520 0.843157775305164 3.951000000000000
-0.395688819069736 0.857660266494193 3.968000000000000
-0.388907861484871 0.853650729268867 3.900000000000000
-0.391500580561437 0.870101259023366 3.926000000000000
-0.395389659176286 0.889611056603980 3.965000000000000
-0.400774537258384 0.912741217805013 4.019000000000000
-0.399976777542518 0.921916839780096 4.011000000000000
-0.394990779318353 0.921279928525622 3.961000000000000
-0.390503380916604 0.921545600543731 3.916000000000000
-0.397084898572502 1.035294245325938 3.982000000000000
-0.392497780206270 1.034121473556124 3.936000000000000
-0.390204221023154 1.049526383582818 3.913000000000000
-0.390503380916604 1.061063148490213 3.916000000000000
-0.390702820845571 1.072342660447372 3.918000000000000
-0.396287138856636 1.098560734037480 3.974000000000000
-0.401971176832184 1.202695932428210 4.031000000000000
-0.399877057578034 1.207420070926262 4.010000000000000
-0.402170616761150 1.225398190119654 4.033000000000000
-0.405162215695649 1.245648460066979 4.063000000000000
-0.405062495731166 1.256474120684268 4.062000000000000
-0.409151014274981 1.280401012919103 4.103000000000000
-0.409151014274981 1.291645620824038 4.103000000000000
-0.410547093777747 1.307335869285201 4.117000000000000
-0.410547093777747 1.318618845337996 4.117000000000000
-0.404165016050816 1.309228098639027 4.053000000000000
-0.405860255447032 1.325873724944229 4.070000000000000
-0.406059695375999 1.337684909807447 4.072000000000000
-0.404863055802199 1.344869575703096 4.060000000000000
-0.405561095553582 1.358334263304155 4.067000000000000
-0.404962775766683 1.367459831289773 4.061000000000000
-0.408752134417048 1.391489210328705 4.099000000000000
-0.403367256334950 1.384243462341663 4.045000000000000
-0.403367256334950 1.395329116491178 4.045000000000000
-0.403865856157366 1.408153231420224 4.050000000000000
-0.385235981148829 -0.611030031297446 3.972000000000000
-0.378349839491838 -0.578725771884918 3.901000000000000
-0.386593811898094 -0.580411832736800 3.986000000000000
-0.385623932791476 -0.568059152721672 3.976000000000000
-0.385623932791476 -0.557162598729466 3.976000000000000
-0.385817908612800 -0.546540826449905 3.978000000000000
-0.384751041595519 -0.490670083258881 3.967000000000000
-0.382520319650297 -0.477016405123792 3.944000000000000
-0.379901646062427 -0.463015966630674 3.917000000000000
-0.401335974318694 -0.466458608990205 4.138000000000000
-0.394837784304351 0.054311834381149 4.071000000000000
-0.381744416365002 0.084871570846785 3.936000000000000
-0.385526944880814 0.096606337321794 3.975000000000000
-0.386108872344785 0.107662415110473 3.981000000000000
-0.386108872344785 0.118572672012629 3.981000000000000
-0.380095621883751 0.127466364837237 3.919000000000000
-0.380095621883751 0.181168068931118 3.919000000000000
-0.382617307560959 0.193181596443821 3.945000000000000
-0.383296222935592 0.204355157501247 3.952000000000000
-0.383005259203606 0.215022587876761 3.949000000000000
-0.382714295471621 0.225673574760336 3.946000000000000
-0.382908271292944 0.236607773386756 3.948000000000000
-0.379901646062427 0.245484770585882 3.917000000000000
-0.383587186667577 0.258705294256288 3.955000000000000
-0.383005259203606 0.269135379269142 3.949000000000000
-0.383587186667577 0.280383297797120 3.955000000000000
-0.386496823987433 0.293431318274749 3.985000000000000
-0.382714295471621 0.344631276617902 3.946000000000000
-0.382520319650297 0.376883168989767 3.944000000000000
-0.379416706509118 0.384546450124148 3.912000000000000
-0.381550440543679 0.397490481958749 3.934000000000000
-0.381647428454341 0.408375711866172 3.935000000000000
-0.382423331739635 0.420012069523084 3.943000000000000
-0.379707670241104 0.427758861671865 3.915000000000000
-0.377767912027867 0.446922764918358 3.895000000000000
-0.349544430025272 0.472794988023657 3.604000000000000
-0.379319718598456 0.663126971163596 3.911000000000000
-0.383878150399563 0.747026589126467 3.958000000000000
-0.380580561437060 0.751363527238644 3.924000000000000
-0.380871525169046 0.762700229660771 3.927000000000000
-0.379125742777133 0.769917212499246 3.909000000000000
-0.383490198756916 0.854634247408780 3.954000000000000
-0.383393210846254 0.865251623794829 3.953000000000000
-0.378737791134485 0.865447125951667 3.905000000000000
-0.382132368007650 0.884001907445065 3.940000000000000
-0.376992008742572 0.904068437813454 3.887000000000000
-0.378834779045147 0.919192317600566 3.906000000000000
-0.365644423195137 0.938847640084848 3.770000000000000
-0.368554060514992 0.956732787774812 3.800000000000000
-0.381550440543679 1.001251656681813 3.934000000000000
-0.377088996653234 1.000199470519559 3.888000000000000
-0.382035380096988 1.024114523440198 3.939000000000000
-0.374276347244041 1.013890946761454 3.859000000000000
-0.378737791134485 1.058082634028162 3.905000000000000
-0.380386585615737 1.073437446216079 3.922000000000000
-0.382811283382283 1.091096934384986 3.947000000000000
-0.389503449217950 1.121177266324277 4.016000000000000
-0.386108872344785 1.187777848423891 3.981000000000000
-0.388921521753979 1.207420070926262 4.010000000000000
-0.387078751451404 1.212636790668866 3.991000000000000
-0.392413086537805 1.240436541824022 4.046000000000000
-0.397068506249573 1.266372488941752 4.094000000000000
-0.393382965644423 1.265733977187395 4.056000000000000
-0.392316098627143 1.273386920846511 4.045000000000000
-0.399008264462810 1.306383232023152 4.114000000000000
-0.396001639232293 1.307729109913781 4.083000000000000
-0.391346219520525 1.303413614115093 4.035000000000000
-0.394934772215013 1.326525259944202 4.072000000000000
-0.392704050269790 1.330129223921992 4.049000000000000
-0.391734171163172 1.337913353759804 4.039000000000000
-0.390861279967215 1.345976661203773 4.030000000000000
-0.390182364592582 1.354664097827814 4.023000000000000
-0.387951642647360 1.357881639745016 4.000000000000000
-0.390958267877877 1.379452508454695 4.031000000000000
-0.392995014001776 1.397743777508592 4.052000000000000
-0.391540195341848 1.403633233393443 4.037000000000000
-0.390376340413906 1.410491770032284 4.025000000000000
-0.390958267877877 1.423641652461316 4.031000000000000
-0.373818728228946 -0.729667655103238 3.966000000000000
-0.374101495799467 -0.719342227435418 3.969000000000000
-0.372027866948979 -0.628818326819883 3.947000000000000
-0.378531521070965 -0.628804919892788 4.016000000000000
-0.371839355235298 -0.606876503894367 3.945000000000000
-0.368446144389044 -0.590625532358052 3.909000000000000
-0.375326821938392 -0.590742379811777 3.982000000000000
-0.375326821938392 -0.579829382327631 3.982000000000000
-0.375609589508913 -0.569345000904392 3.985000000000000
-0.376269380506796 -0.559404701742462 3.992000000000000
-0.375326821938392 -0.547090389875194 3.982000000000000
-0.370048493955331 -0.485598877457617 3.926000000000000
-0.370048493955331 -0.474839352564911 3.926000000000000
-0.381641964346698 -0.434232795996558 4.049000000000000
-0.377117683218359 -0.407154925099894 4.001000000000000
-0.375892357079435 -0.383973120371842 3.988000000000000
-0.372027866948979 -0.347574321842987 3.947000000000000
-0.389370944607609 -0.126029203641685 4.131000000000000
-0.368257632675364 0.073538792938068 3.907000000000000
-0.370331261525852 0.084720630553104 3.929000000000000
-0.371650843521617 0.095828625927002 3.943000000000000
-0.373912984085787 0.107283798227392 3.967000000000000
-0.373724472372106 0.118096117691553 3.965000000000000
-0.368728911959566 0.170123315227222 3.912000000000000
-0.370331261525852 0.181630350301190 3.929000000000000
-0.370708284953214 0.192593971815855 3.933000000000000
-0.372404890376341 0.204303448200260 3.951000000000000
-0.371839355235298 0.214804788344853 3.945000000000000
-0.370991052523735 0.225101670110665 3.936000000000000
-0.374384263369988 0.238046118513728 3.972000000000000
-0.365335701113312 0.242915233799049 3.876000000000000
-0.369105935386927 0.256154218029741 3.916000000000000
-0.372027866948979 0.268999073683287 3.947000000000000
-0.374101495799467 0.281375805045959 3.969000000000000
-0.374949798511031 0.292915880576399 3.978000000000000
-0.368917423673246 0.309656583151998 3.914000000000000
-0.369671470527969 0.331786629248587 3.922000000000000
-0.369482958814289 0.385332843682684 3.920000000000000
-0.372027866948979 0.409621076171736 3.947000000000000
-0.371650843521617 0.420012069523084 3.943000000000000
-0.369294447100608 0.428086646240196 3.918000000000000
-0.367409329963800 0.436584204381642 3.898000000000000
-0.366184003824875 0.445775338050788 3.885000000000000
-0.375609589508913 0.730280087479377 3.985000000000000
-0.374949798511031 0.739899321980016 3.978000000000000
-0.366938050679598 0.745427678781866 3.893000000000000
-0.369200191243768 0.760758034016104 3.917000000000000
-0.372499146233181 0.843371178943560 3.952000000000000
-0.366089747968035 0.850148572430841 3.884000000000000
-0.372781913803702 0.941562405792494 3.955000000000000
-0.364016119117547 1.004095021458757 3.862000000000000
-0.369200191243768 1.061334104350400 3.917000000000000
-0.369671470527969 1.073437446216079 3.922000000000000
-0.370237005669012 1.085844630925823 3.928000000000000
-0.369859982241650 1.149263145201515 3.924000000000000
-0.370991052523735 1.163564642107398 3.936000000000000
-0.374195751656308 1.184495869942941 3.970000000000000
-0.371745099378458 1.187547321629221 3.944000000000000
-0.377211939075200 1.248882489325433 4.002000000000000
-0.379662591353050 1.279074297177749 4.028000000000000
-0.384469640051909 1.306447964569756 4.079000000000000
-0.383621337340346 1.314719556244964 4.070000000000000
-0.377211939075200 1.303721534945161 4.002000000000000
-0.387768595041322 1.351482249250451 4.114000000000000
-0.381076429205655 1.339238348415670 4.043000000000000
-0.379474079639369 1.344640704219948 4.026000000000000
-0.379756847209890 1.356684476795492 4.029000000000000
-0.378814288641486 1.364331577533805 4.019000000000000
-0.378437265214125 1.373977132583875 4.015000000000000
-0.379851103066730 1.390154842882434 4.030000000000000
-0.379097056212007 1.398417851054850 4.022000000000000
-0.378343009357284 1.406637009915426 4.014000000000000
-0.379945358923571 1.423641652461316 4.031000000000000
-0.382301755344580 1.443586786009877 4.056000000000000
-0.381264940919336 1.450757387238754 4.045000000000000
-0.340829178334813 1.326624447087583 3.616000000000000
-0.341206201762175 1.338012858810697 3.620000000000000
-0.367010450105867 -0.748752541889796 4.010000000000000
-0.366827402499829 -0.737394846609626 4.008000000000000
-0.360603783894543 -0.714086262558717 3.940000000000000
-0.354105593880199 -0.690614898899930 3.869000000000000
-0.366827402499829 -0.627552320450771 4.008000000000000
-0.365820640666621 -0.614875890004001 3.997000000000000
-0.368566354757189 -0.608454596778172 4.027000000000000
-0.367559592923981 -0.595786388077372 4.016000000000000
-0.366095212075678 -0.582450409168891 4.000000000000000
-0.365637593060583 -0.570773721107414 3.995000000000000
-0.366552831090772 -0.561226410440521 4.005000000000000
-0.366461307287754 -0.550112988714283 4.004000000000000
-0.359780069667372 -0.475444089386822 3.931000000000000
-0.367101973908886 -0.430157506728129 4.011000000000000
-0.367193497711905 -0.408274321294870 4.012000000000000
-0.366735878696810 -0.396783992808713 4.007000000000000
-0.371952735468889 -0.135122882215267 4.064000000000000
-0.378725496892289 -0.126242760752673 4.138000000000000
-0.366827402499829 -0.111292447504152 4.008000000000000
-0.362891878970016 0.009432041788394 3.965000000000000
-0.367651116727000 0.020564658550890 4.017000000000000
-0.363624069394167 0.042116069128440 3.973000000000000
-0.358315688819070 0.073689371474926 3.915000000000000
-0.359413974455297 0.095439770229606 3.927000000000000
-0.360878355303599 0.106634740713538 3.943000000000000
-0.357949593606994 0.116487746857923 3.911000000000000
-0.359505498258316 0.181584122164183 3.928000000000000
-0.359505498258316 0.192349128220869 3.928000000000000
-0.359963117273410 0.203372680782491 3.933000000000000
-0.359505498258316 0.213879140334241 3.928000000000000
-0.357858069803975 0.223614718021519 3.910000000000000
-0.361061402909637 0.236427980245885 3.945000000000000
-0.356851307970767 0.255042210443810 3.899000000000000
-0.359597022061335 0.267772323410599 3.929000000000000
-0.359139403046240 0.278185603174690 3.924000000000000
-0.361793593333789 0.291075031653722 3.953000000000000
-0.363166450379072 0.303054170343614 3.968000000000000
-0.362800355166997 0.324476006204678 3.964000000000000
-0.358315688819070 0.384841347708599 3.915000000000000
-0.359780069667372 0.397187362628328 3.931000000000000
-0.357125879379824 0.404950960025871 3.902000000000000
-0.357858069803975 0.416496878477113 3.910000000000000
-0.359322450652278 0.428960738422411 3.926000000000000
-0.356942831773786 0.436808208591176 3.900000000000000
-0.355661498531521 0.445890080737545 3.886000000000000
-0.335251690458302 0.600999994518836 3.663000000000000
-0.360603783894543 0.689639832714875 3.940000000000000
-0.362159688545864 0.703459918988396 3.957000000000000
-0.359780069667372 0.709610968905357 3.931000000000000
-0.369390068984359 0.739626206541221 4.036000000000000
-0.362891878970016 0.857011833833033 3.965000000000000
-0.369481592787378 1.005338971624014 4.037000000000000
-0.346692165835667 1.005618149230171 3.788000000000000
-0.359413974455297 1.064043662952264 3.927000000000000
-0.357675022197937 1.069605696025608 3.908000000000000
-0.356393688955672 1.076445772104164 3.894000000000000
-0.355020831910389 1.136083521976727 3.879000000000000
-0.360969879106618 1.165929610892169 3.944000000000000
-0.358132641213032 1.188937048831690 3.913000000000000
-0.365271497848508 1.223574453390922 3.991000000000000
-0.365637593060583 1.235749412145163 3.995000000000000
-0.362708831363978 1.236711970314016 3.963000000000000
-0.361793593333789 1.244424845020089 3.953000000000000
-0.368657878560208 1.279074297177749 4.028000000000000
-0.368657878560208 1.290113361433434 4.028000000000000
-0.369756164196435 1.305028748705075 4.040000000000000
-0.371861211665870 1.323593352444325 4.063000000000000
-0.370762926029643 1.330786240085944 4.051000000000000
-0.370488354620586 1.340894591735501 4.048000000000000
-0.367742640530018 1.352980448688083 4.018000000000000
-0.368749402363227 1.367726281633167 4.029000000000000
-0.368749402363227 1.378768086470843 4.029000000000000
-0.368474830954170 1.388775036586769 4.026000000000000
-0.367468069120962 1.395984005963506 4.015000000000000
-0.366827402499829 1.404534413488048 4.008000000000000
-0.367559592923981 1.418344052663023 4.016000000000000
-0.370030735605491 1.438959905285486 4.043000000000000
-0.375064544771532 1.469766074883662 4.098000000000000
-0.330309405095280 1.610888365133220 3.609000000000000
-0.356942831773786 -0.750619755211217 4.020000000000000
-0.356410081278601 -0.738498731110539 4.014000000000000
-0.347974865104843 -0.699539878208536 3.919000000000000
-0.363868588211188 -0.652874969168453 4.098000000000000
-0.358629875008538 -0.632406143288589 4.039000000000000
-0.355610955535824 -0.583178472180352 4.005000000000000
-0.355610955535824 -0.572202441310437 4.005000000000000
-0.355344580288232 -0.560806016125584 4.002000000000000
-0.355166996789837 -0.549563425288994 4.000000000000000
-0.343890444641759 -0.479043416299885 3.873000000000000
-0.344955945632129 -0.469880510625236 3.885000000000000
-0.357209207021378 -0.431444440181317 4.023000000000000
-0.345399904378116 -0.363876608036483 3.890000000000000
-0.355255788539034 -0.330399445306205 4.001000000000000
-0.361027252236869 -0.146332586067977 4.066000000000000
-0.347619698108053 0.009313100530029 3.915000000000000
-0.348951574346015 0.020119270128204 3.930000000000000
-0.351792910320333 0.031141277001584 3.962000000000000
-0.352414452564716 0.052951036762167 3.969000000000000
-0.353302370056690 0.063989224031615 3.979000000000000
-0.349395533092002 0.074065817817072 3.935000000000000
-0.348241240352435 0.084569690259423 3.922000000000000
-0.348063656854040 0.095269645861995 3.920000000000000
-0.349129157844410 0.106337256019688 3.932000000000000
-0.345399904378116 0.115862269311511 3.890000000000000
-0.347708489857250 0.170297265447290 3.916000000000000
-0.349040366095212 0.181722806575204 3.931000000000000
-0.348063656854040 0.191957378468892 3.920000000000000
-0.348685199098422 0.203062424976568 3.927000000000000
-0.349306741342804 0.214205839632104 3.934000000000000
-0.349839491837989 0.225330431970533 3.940000000000000
-0.345311112628919 0.254388088334439 3.889000000000000
-0.345577487876511 0.265250670072296 3.892000000000000
-0.346287821870091 0.276484162176680 3.900000000000000
-0.346021446622499 0.286951530066925 3.897000000000000
-0.350904992828359 0.301832177721261 3.952000000000000
-0.346465405368486 0.383563458175978 3.902000000000000
-0.345488696127314 0.425136585125217 3.891000000000000
-0.346554197117683 0.437144214905477 3.903000000000000
-0.341493067413428 0.441300373267267 3.846000000000000
-0.323912301072331 0.608536540179673 3.648000000000000
-0.346376613619288 0.682813448583941 3.901000000000000
-0.356854040024589 0.725496434502831 4.019000000000000
-0.355699747285022 0.734128489446019 4.006000000000000
-0.350105867085582 0.841450546197991 3.943000000000000
-0.352325660815518 0.868534895830478 3.968000000000000
-0.342558568403798 0.855030732886436 3.858000000000000
-0.353479953555085 0.904111168967842 3.981000000000000
-0.333768185233249 0.987617535339805 3.759000000000000
-0.345843863124104 1.055373075426297 3.895000000000000
-0.345666279625709 1.065500249392961 3.893000000000000
-0.346376613619288 1.078380831273329 3.901000000000000
-0.346909364114473 1.090746907253224 3.907000000000000
-0.320893381599618 1.028756795273044 3.614000000000000
-0.348152448603238 1.148384503653196 3.921000000000000
-0.346287821870091 1.152922282575928 3.900000000000000
-0.343979236390957 1.177087177913102 3.874000000000000
-0.343091318898982 1.184638358281765 3.864000000000000
-0.348951574346015 1.215643351622150 3.930000000000000
-0.349129157844410 1.227037968022889 3.932000000000000
-0.353479953555085 1.253239389836825 3.981000000000000
-0.353124786558295 1.262879463722916 3.977000000000000
-0.353746328802677 1.276020762649156 3.984000000000000
-0.360849668738474 1.312781394736986 4.064000000000000
-0.359073833754525 1.317403769944586 4.044000000000000
-0.357297998770576 1.321916521872585 4.024000000000000
-0.356054914281811 1.328307142504782 4.010000000000000
-0.356054914281811 1.339296876284648 4.010000000000000
-0.357386790519773 1.355337557483707 4.025000000000000
-0.358807458506933 1.371799926552403 4.041000000000000
-0.358541083259340 1.381847985398179 4.038000000000000
-0.357830749265761 1.390154842882434 4.030000000000000
-0.357031623522983 1.398070158898943 4.021000000000000
-0.355078205040639 1.401380518846982 3.999000000000000
-0.354634246294652 1.410574239625527 3.994000000000000
-0.358363499760945 1.436468507972353 4.036000000000000
-0.354545454545455 1.432107354077712 3.993000000000000
-0.324267468069121 1.339831991361686 3.652000000000000
-0.347681169319036 -0.754354181854059 4.040000000000000
-0.347336930537532 -0.742546307613885 4.036000000000000
-0.342345468205724 -0.720973388948877 3.978000000000000
-0.338817020695308 -0.702752870759635 3.937000000000000
-0.349918721398812 -0.636633666405398 4.066000000000000
-0.354393825558364 -0.633489846143727 4.118000000000000
-0.344324841199372 -0.593561090313139 4.001000000000000
-0.344324841199372 -0.571630953229228 4.001000000000000
-0.344927259067004 -0.561646804755458 4.008000000000000
-0.334341916535756 -0.480527671656353 3.885000000000000
-0.344755139676252 -0.451578827359778 4.006000000000000
-0.334169797145004 -0.373863497092243 3.883000000000000
-0.332964961409740 -0.361912235602353 3.869000000000000
-0.309900963048972 -0.149335222507852 3.601000000000000
-0.326854723038044 -0.043008874004484 3.798000000000000
-0.335374632880268 -0.012089814352976 3.897000000000000
-0.336063110443276 -0.001412660392561 3.905000000000000
-0.337181886483164 0.009320237005530 3.918000000000000
-0.336923707397036 0.020042479020845 3.915000000000000
-0.338730960999932 0.030936917283754 3.936000000000000
-0.339505498258316 0.041819253136596 3.945000000000000
-0.343636363636364 0.053271224437221 3.993000000000000
-0.339763677344444 0.063490690242980 3.948000000000000
-0.339935796735196 0.074348152573680 3.950000000000000
-0.339505498258316 0.085065636938660 3.945000000000000
-0.338644901304556 0.095634198078304 3.935000000000000
-0.335977050747900 0.105580022253526 3.904000000000000
-0.334944334403388 0.115921838601645 3.892000000000000
-0.333653438972748 0.126100305300834 3.877000000000000
-0.336837647701660 0.170210290337256 3.914000000000000
-0.337181886483164 0.181121840794111 3.918000000000000
-0.335977050747900 0.191173878964937 3.904000000000000
-0.334772215012636 0.201149180840043 3.890000000000000
-0.335116453794140 0.212027844313018 3.894000000000000
-0.336235229834028 0.223443146626618 3.907000000000000
-0.335374632880268 0.233551289991943 3.897000000000000
-0.334255856840380 0.264705447728880 3.884000000000000
-0.334944334403388 0.275917015177343 3.892000000000000
-0.336751588006284 0.288129673377438 3.913000000000000
-0.338903080390684 0.300762934176702 3.938000000000000
-0.336063110443276 0.394560328431346 3.905000000000000
-0.338042483436924 0.407649249354593 3.928000000000000
-0.334858274708012 0.414472980602161 3.891000000000000
-0.310761560002732 0.463817049708676 3.611000000000000
-0.328748036336316 0.616290457841627 3.820000000000000
-0.335632811966396 0.661261873571471 3.900000000000000
-0.333051021105116 0.857690237498835 3.870000000000000
-0.330555289939212 0.998635157282000 3.841000000000000
